ply
format ascii 1.0
element vertex 755
property float x
property float y
property float z
property float nx
property float ny
property float nz
property uchar red
property uchar green
property uchar blue
end_header
0.660203 -1.38213 5.23745 -0.694383 0.11998 -0.709533 ` G `
0.664431 -0.993994 5.18499 -0.633265 -0.193952 -0.749238 ä u å
0.671512 -0.80607 5.16523 -0.87355 -0.00488086 -0.48671 K 6 H
0.67877 -0.780321 5.15924 -0.871849 0.00230526 -0.489769 W F X
0.67877 -0.780321 5.15924 -0.871849 0.00230526 -0.489769 W F X
0.152864 0.806909 4.84958 -0.791431 -0.185583 -0.582405 M H r
0.679468 -0.7967 5.14848 -0.829145 0.00891694 -0.558963 â { î
0.680355 -0.796879 5.14859 -0.830057 0.0130308 -0.557527 â { î
0.680255 -0.367319 5.10523 -0.700902 -0.175065 -0.69144 ï { ä
0.678314 0.324199 5.03446 -0.72845 -0.257633 -0.634811 P ? W
0.677297 -0.0204521 5.0629 -0.660743 -0.0173991 -0.75041 O 7 U
0.689563 -0.169646 5.07262 -0.814223 -0.195577 -0.546617 Z ? S
0.697887 -0.982886 5.15346 -0.692517 0.0142499 -0.72126 O ? [
0.699747 -0.983307 5.1539 -0.703595 0.0311924 -0.709916 O ? [
0.687604 -1.43188 5.19185 -0.653167 0.105321 -0.749853 c J f
0.709439 -1.17018 5.16873 -0.727729 -0.0941051 -0.679378 M @ L
0.696336 -0.736497 5.12139 -0.747517 -0.208948 -0.630523 î { ç
0.713097 -1.19106 5.16603 -0.755728 0.121344 -0.643545 ç x é
0.708726 -1.74649 5.21679 -0.697757 -0.0785053 -0.71202 i J V
0.71602 -0.397586 5.08637 -0.735268 -0.0703545 -0.674115 Y @ X
0.71602 -0.397586 5.08637 -0.735268 -0.0703545 -0.674115 Y @ X
0.71073 0.18713 5.01429 -0.748589 0.0122513 -0.662921 U B V
0.72313 -1.15665 5.1455 -0.747456 -0.0379125 -0.663228 _ F X
0.721585 -1.44482 5.17112 -0.676558 0.149839 -0.720984 ^ D `
0.728391 0.334099 4.99372 -0.626575 -0.107165 -0.771959 _ F Z
0.728391 0.334099 4.99372 -0.626575 -0.107165 -0.771959 _ F Z
0.736328 0.200281 4.99922 -0.730381 0.0332101 -0.682232 H 7 N
0.740084 -0.414247 5.05542 -0.81667 0.0136812 -0.576943 N A I
0.741288 -0.414046 5.05565 -0.81705 0.0123739 -0.576434 N A I
0.726183 0.190702 4.99175 -0.728305 -0.0181815 -0.685012 ä | à
0.73259 0.251153 4.98448 -0.893205 -0.0932391 -0.439876 ] D ^
0.737131 0.332105 4.97455 -0.742436 0.129639 -0.657254 ü â ä
0.758845 -1.30082 5.13469 -0.719414 -0.127047 -0.682863 ` G `
0.745529 -0.466978 5.04589 -0.815501 -0.00617293 -0.578723 N ; Q
0.726225 0.393541 4.95585 -0.730578 -0.0246369 -0.682385 X J j
0.726225 0.393541 4.95585 -0.730578 -0.0246369 -0.682385 X J j
0.744268 0.486059 4.9513 -0.720903 0.0382626 -0.691979 - ! *
0.744268 0.486059 4.9513 -0.720903 0.0382626 -0.691979 - ! *
0.757872 -0.754192 5.06563 -0.678776 0.187691 -0.709954 U 9 H
0.769372 -1.18709 5.1037 -0.743081 0.000674616 -0.669201 O ? P
0.759221 -0.0147864 4.98694 -0.644273 0.181262 -0.743005 _ R b
0.766022 0.326125 4.94259 -0.734199 0.120709 -0.668118 P : Y
0.766022 0.326125 4.94259 -0.734199 0.120709 -0.668118 P : Y
0.777299 -1.48215 5.11723 -0.675942 -0.107156 -0.729123 d E Z
0.781035 -0.775227 5.04294 -0.655393 -0.0301576 -0.754686 L ; U
0.781035 -0.775227 5.04294 -0.655393 -0.0301576 -0.754686 L ; U
0.819733 -0.978655 5.03252 -0.789358 -0.188812 -0.584178 Y = J
0.809943 0.109728 4.9208 -0.731962 -0.0358069 -0.680404 U E d
0.817083 -1.11388 5.03877 -0.634826 0.0621871 -0.770149 J 1 =
0.826678 -0.214931 4.95079 -0.726297 -0.0291912 -0.686761 6 . E
0.821387 0.162889 4.90605 -0.745581 -0.0876334 -0.660628 J < T
0.814233 0.349362 4.88587 -0.696818 -0.171739 -0.696383 ` J ^
0.814044 0.404854 4.87708 -0.761395 -0.142912 -0.632341 R ; S
0.830447 -1.13423 5.02418 -0.770243 0.0452518 -0.636144 Ü s Ö
0.832059 -0.195806 4.93185 -0.736975 -0.130428 -0.663217 ë x Ü
0.843935 -1.00196 5.00407 -0.8714 -0.104584 -0.479295 T @ L
0.833638 0.317544 4.8756 -0.733578 -0.141013 -0.664815 N @ _
0.837792 -0.703867 4.97329 -0.777758 -0.0705609 -0.624591 d J X
0.841699 -1.16558 5.01545 -0.766167 -0.205795 -0.6088 ó } ä
0.850945 -0.584409 4.95996 -0.723638 -0.0678649 -0.686835 E 7 G
0.847205 -1.29327 5.02631 -0.623491 -0.220889 -0.749978 ï | è
0.846002 0.188729 4.86132 -0.714176 0.0133629 -0.699839 û è û
0.864976 0.506487 4.82487 -0.720435 0.0806432 -0.688818 å | è
0.880185 -0.408398 4.90616 -0.768979 -0.20011 -0.607147 G 8 O
0.87533 0.245721 4.84071 -0.846974 -0.0653119 -0.527607 ä { ì
0.890597 -1.17788 4.96943 -0.64795 -0.363815 -0.669179 Q @ K
0.887646 0.230553 4.83322 -0.842653 -0.0721418 -0.533603 ó Ö ú
0.919012 -1.59324 5.01165 -0.974505 -0.222583 -0.0282093 ã q É
0.888777 0.256404 4.82845 -0.874923 -0.0815277 -0.477349 í Ç ô
0.905682 -0.418388 4.88699 -0.665583 -0.0773687 -0.742303 L C ^
0.914141 -1.76884 5.01545 -0.70622 -0.132195 -0.695542 \ ? O
0.911457 -1.76768 5.01485 -0.706256 -0.134115 -0.695137 \ ? O
0.897467 -0.351673 4.87552 -0.681145 -0.123642 -0.721633 à y â
0.911291 -1.40564 4.97667 -0.888503 0.0322473 -0.457736 F ( >
0.925232 -1.61566 4.99109 -0.999592 -0.0284829 -0.00212417 B + 5
0.912436 0.00186867 4.83318 -0.770124 -0.171935 -0.614286 { i 
0.91447 -1.44617 4.96824 -0.738324 0.104198 -0.666348 Z @ \
0.899817 0.697017 4.761 -0.721694 -0.220223 -0.656247 ä | é
0.922417 -1.37641 4.96019 -0.755527 -0.21323 -0.619445 ^ ; R
0.914121 0.135072 4.81252 -0.73073 0.0300201 -0.682006 Ç p Ü
0.914668 0.134702 4.81264 -0.728045 0.0333078 -0.68472 Ç p Ü
0.916142 -0.281778 4.85187 -0.676814 -0.0818821 -0.731586 W A X
0.916142 -0.281778 4.85187 -0.676814 -0.0818821 -0.731586 W A X
0.923274 -1.65008 4.97942 -0.789635 0.254715 -0.558208 Y @ _
0.923274 -1.65008 4.97942 -0.789635 0.254715 -0.558208 Y @ _
0.915847 -1.58559 4.97087 -0.821483 -0.30883 -0.479364 í | é
0.924137 -0.388539 4.85938 -0.707757 -0.15633 -0.688942 \ A Q
0.906709 0.208927 4.79665 -0.615532 -0.455117 -0.64342 ë } ì
0.919126 0.156347 4.80054 -0.742376 -0.00452769 -0.669968 z k Å
0.933728 -1.37911 4.94042 -0.75666 -0.365944 -0.541803 à s Ñ
0.922472 0.00470838 4.80468 -0.784783 -0.0246301 -0.619281 z e w
0.938164 0.0228177 4.79989 -0.732786 -0.181115 -0.655914 x g x
0.922456 0.738797 4.72824 -0.757451 -0.0693613 -0.649197 < - ?
0.935683 0.132894 4.78492 -0.791286 0.0332154 -0.610543 O ; P
0.934743 0.100488 4.78497 -0.783066 -0.0281971 -0.621299 Y B W
0.943138 -1.42444 4.92773 -0.740898 0.0501263 -0.669744 á s ä
0.94791 -0.220588 4.81521 -0.716975 -0.0868034 -0.691673 í  ë
0.949354 -0.578333 4.83905 -0.672606 0.368141 -0.64193 à v å
0.963874 -0.425988 4.82781 -0.706923 -0.172953 -0.685818 M > Z
0.977914 -0.78871 4.84915 -0.670678 -0.396911 -0.62662 J 7 K
0.98265 -0.918304 4.85916 -0.747397 0.014072 -0.664229 ó  ë
0.968826 0.649374 4.69819 -0.649896 -0.363268 -0.667586 @ 3 O
0.965206 0.80539 4.68192 -0.63723 0.390707 -0.664294 C 8 G
0.977715 -0.0142162 4.7606 -0.736855 -0.185815 -0.650013 G 8 N
0.995608 -1.79872 4.93161 -0.713818 -0.270039 -0.646175 T < P
0.992666 -0.951418 4.84908 -0.740776 0.0368733 -0.670739 U D _
0.974556 0.924104 4.66798 -0.694723 -0.169132 -0.699109 S > U
0.987946 0.47693 4.7033 -0.500313 0.201241 -0.842134 ñ Ñ ë
1.00261 -0.889718 4.83075 -0.873614 0.0386999 -0.485078 \ G c
0.976626 1.06007 4.63662 -0.765271 0.0389883 -0.642527 _ G a
0.991068 0.300564 4.70962 -0.74042 -0.111276 -0.66287 ^ F ^
1.01003 -1.41902 4.87237 -0.673511 0.130659 -0.727538 _ A W
0.989876 0.455369 4.69188 -0.602087 0.179219 -0.778057 É v à
1.01867 -1.80328 4.90897 -0.713999 -0.269392 -0.646246 Z = Q
1.0201 -0.818212 4.81631 -0.885294 -0.190346 -0.424292 Y A Y
1.00145 -0.228583 4.75304 -0.68754 0.143799 -0.711766 ç { ã
0.995104 0.815473 4.65118 -0.701256 0.342501 -0.625247 ë ~ à
0.982188 1.05297 4.62304 -0.714888 -0.0722398 -0.695497 í  é
1.0224 -0.836058 4.80464 -0.906306 0.105584 -0.40922 Ä q Ü
0.99137 1.10294 4.61438 -0.757302 0.0113739 -0.652966 _ H ^
1.02614 -0.846516 4.79396 -0.799579 0.366142 -0.476039 [ D d
1.02576 -0.84636 4.79389 -0.80089 0.362369 -0.476722 [ D d
1.01445 1.18366 4.58162 -0.730681 -0.0346187 -0.681841 S @ ]
1.02848 0.827874 4.61548 -0.684312 -0.0290378 -0.728611 _ M e
1.05041 -1.79149 4.86081 -0.720578 -0.090302 -0.687468 î } ç
1.06044 -1.80919 4.86375 -0.716285 -0.0848222 -0.692633 Y < I
1.04046 -0.414844 4.7272 -0.737342 -0.114315 -0.665777 ä p Ä
1.04464 -0.582887 4.73902 -0.799018 -0.0514541 -0.599102 â w á
1.05072 0.17505 4.6578 -0.677886 -0.0675662 -0.732056 ì É ö
1.0783 -0.243729 4.69029 -0.73964 -0.098889 -0.665698 5 % 4
1.06861 -0.0421462 4.66619 -0.688706 -0.0504289 -0.723285 X L b
1.05425 1.18073 4.54541 -0.683506 -0.0804976 -0.725493 \ F b
1.05922 0.431213 4.61006 -0.783533 0.199801 -0.58835 á x ê
1.08039 -0.583931 4.70727 -0.72235 -0.232192 -0.651381 ã y ä
1.08587 -0.202022 4.66967 -0.768471 -0.134177 -0.625659 ä w é
1.08326 -0.0623109 4.6515 -0.677574 0.0496409 -0.733778 ô Ü ì
1.08326 -0.0623109 4.6515 -0.677574 0.0496409 -0.733778 ô Ü ì
1.09336 -0.114557 4.65363 -0.701208 -0.0921468 -0.706976 ã } ì
1.09194 -0.164721 4.65691 -0.66487 -0.119435 -0.737349 ï Ç î
1.08917 0.46677 4.59514 -0.791758 0.0157406 -0.610632 ã z é
1.09675 -1.44296 4.77262 -0.87716 0.0674343 -0.47544 ç { å
1.11104 -1.42307 4.76638 -0.829901 0.115103 -0.545908 O A H
1.09316 0.12875 4.61673 -0.566537 0.0886395 -0.819255 é } í
1.10132 -0.447997 4.67113 -0.692858 -0.0936683 -0.714964 I 6 K
1.0947 0.539682 4.57686 -0.857508 -0.0506888 -0.511968 ^ M i
1.09041 0.540559 4.57621 -0.85341 -0.0191486 -0.520888 ^ M i
1.10496 -1.11944 4.73013 -0.352579 -0.0524758 -0.934309 j S l
1.10682 -1.04913 4.72377 -0.770077 0.0507184 -0.635932 \ G _
1.11873 -0.919758 4.71347 -0.728444 -0.0674374 -0.681778 ô Ñ õ
1.12168 -1.27781 4.74575 -0.870359 0.0373062 -0.491002 m S a
1.11234 -1.01095 4.71735 -0.753756 0.0327265 -0.656339 ^ C N
1.11067 -1.01088 4.71729 -0.751972 0.0371527 -0.658147 ^ C N
1.11901 0.208427 4.60298 -0.774687 -0.0394419 -0.631114 ó á ö
1.10982 -0.116267 4.63123 -0.709316 -0.0958348 -0.698346 X C Y
1.11944 -0.0282939 4.6165 -0.716915 0.0875284 -0.691644 ï  ã
1.09315 0.762926 4.53712 -0.729659 0.0893605 -0.677947 í Ä ë
1.12302 0.157577 4.59662 -0.83474 -0.0347035 -0.54955 < . 9
1.12203 0.228291 4.58181 -0.891043 -0.259263 -0.372591 X C Y
1.12462 0.198572 4.58463 -0.818722 -0.013238 -0.574037 O < O
1.14788 -1.7978 4.77215 -0.717952 -0.0788077 -0.691617 _ B X
1.16002 -1.72149 4.75427 -0.722957 -0.099449 -0.683698 i K ^
1.14124 0.283902 4.56056 -0.826233 -0.108703 -0.552742 H - @
1.16864 -1.64668 4.74087 -0.716673 -0.156892 -0.679532 i K R
1.16868 -1.82086 4.75366 -0.728123 -0.0521661 -0.683459 b F [
1.13782 0.628811 4.51261 -0.566843 0.580821 -0.58424 ã Ä ñ
1.14418 0.407948 4.52856 -0.670667 0.111004 -0.733405 ó à ¶
1.15095 1.1472 4.45489 -0.736037 -0.0889261 -0.671075 Ñ q s
1.16968 -0.0481228 4.5658 -0.742262 0.00911043 -0.670048 P : J
1.15995 0.889413 4.47528 -0.790185 -0.125646 -0.599851 Y J f
1.18446 -1.8225 4.72908 -0.746014 -0.0787348 -0.66126 i J `
1.1585 0.632805 4.49047 -0.694081 0.324355 -0.642686 S > R
1.17073 0.793345 4.47768 -0.691468 -0.0201799 -0.722125 ã z á
1.16199 1.16093 4.43718 -0.780703 -0.218771 -0.585357 î Ä è
1.18969 0.778738 4.4644 -0.725968 -0.0106991 -0.687645 M > T
1.2128 0.247057 4.47838 -0.702015 -0.0835147 -0.707248 o W t
1.21983 1.10559 4.38228 -0.811324 -0.0612891 -0.581375 Q > Y
1.2559 -1.23124 4.59843 -0.725343 -0.0334168 -0.687576 f D W
1.22585 0.62712 4.41883 -0.749887 0.0624348 -0.658613 > 0 C
1.22585 0.62712 4.41883 -0.749887 0.0624348 -0.658613 > 0 C
1.27963 -1.27128 4.57597 -0.725788 -0.0231274 -0.68753 ô Ö ú
1.23601 1.19089 4.33942 -0.807592 -0.186851 -0.559359 f M V
1.14303 1.40169 4.30008 -0.754559 -0.0631927 -0.653182   
1.26177 1.12305 4.34072 -0.726275 -0.164161 -0.667514 9 ) A
1.26195 0.0990536 4.43257 -0.706637 -0.146449 -0.692255 é z é
1.16938 1.35281 4.27248 -0.741768 -0.0247333 -0.670201 ˇ ¡ Ø
1.24873 1.338 4.18886 -0.800439 0.0330663 -0.598502 ˇ √ ¥
1.24873 1.338 4.18886 -0.800439 0.0330663 -0.598502 ˇ √ ¥
1.24873 1.338 4.18886 -0.800439 0.0330663 -0.598502 ˇ √ ¥
-0.192572 1.38055 3.98452 0.13756 0.36219 -0.921898 ¢ î É
1.28721 1.39984 4.13463 -0.781466 -0.0512722 -0.621838 c ^ _
-2.20382 0.03431 7.99475 -0.6803 -0.175716 -0.711559 i N _
-2.18391 1.61979 7.79468 -0.580208 -0.372212 -0.724443 Ç y É
-2.19424 -0.148874 8.00268 -0.740767 -0.0676383 -0.668348 b G ^
-2.18602 0.118099 7.97056 -0.73213 0.0131915 -0.681037 é t Å
-2.18553 0.0252973 7.98054 -0.703643 -0.175992 -0.688413 [ G ]
-2.17759 0.630389 7.90537 -0.737443 -0.0310829 -0.674694 U < B
-2.16324 0.824857 7.86954 -0.741409 -0.146965 -0.654763 é z Ü
-2.15032 1.09326 7.82896 -0.740342 -0.0726145 -0.668297 V E M
-2.13774 1.48765 7.78057 -0.674747 -0.141341 -0.724389 A 3 >
-2.14472 0.00567567 7.93996 -0.704747 -0.101779 -0.70212 b J \
-2.12209 0.707684 7.86098 -0.754015 -0.305138 -0.58168 A 9 ?
-2.12703 0.902865 7.81427 -0.692951 -0.0961061 -0.71455 ™  {
-2.13042 -0.0598182 7.93309 -0.693527 -0.0310069 -0.719764 a I U
-2.11185 0.885268 7.81014 -0.692043 -0.0678076 -0.718665 7  
-2.1122 0.127938 7.9032 -0.716166 0.0222456 -0.697575 C 0 A
-2.10575 0.84506 7.80137 -0.736767 -0.135135 -0.662505 0  
-2.10575 0.84506 7.80137 -0.736767 -0.135135 -0.662505 0  
-2.10452 0.27446 7.87917 -0.672595 -0.0644727 -0.737197  d s
-2.07795 1.49621 7.72206 -0.688681 -0.134408 -0.712498 â t u
-2.07566 1.03805 7.75754 -0.501229 0.422114 -0.755373 x j o
-2.07566 1.03805 7.75754 -0.501229 0.422114 -0.755373 x j o
-2.0854 -0.0436633 7.89001 -0.707401 -0.158485 -0.688815 í s ~
-2.07851 0.165917 7.86842 -0.741172 -0.0568723 -0.668902 É j 
-2.0795 -0.0619888 7.88697 -0.70362 -0.128024 -0.698949 > - 9
-2.06157 1.30767 7.71238 -0.704758 0.145948 -0.694273 0 % .
-2.07898 -0.0124541 7.87229 -0.706385 -0.158085 -0.689949 é x ã
-2.07144 0.127818 7.85974 -0.710768 0.199824 -0.674447 + # ,
-2.06118 0.338686 7.83018 -0.66168 -0.286792 -0.69277 9 . 8
-2.07035 -0.0480892 7.87269 -0.688957 -0.143198 -0.710516 k K ^
-2.05566 0.551259 7.79905 -0.655987 -0.397056 -0.641894 z i ~
-2.05087 0.557948 7.8014 -0.664392 -0.34444 -0.663283 S 9 I
-2.05944 -0.0486234 7.86186 -0.764414 -0.115108 -0.634367 h I _
-2.06169 -0.601424 7.92218 -0.710936 0.084641 -0.698144 C 1 =
-2.04737 0.804715 7.74703 -0.713072 -0.151289 -0.684573 > ! 
-2.05807 -0.268393 7.87708 -0.777718 0.118952 -0.617256 U = F
-2.05807 -0.268393 7.87708 -0.777718 0.118952 -0.617256 U = F
-2.04514 0.431284 7.78832 -0.632547 -0.237703 -0.737144 Å v â
-2.04764 0.00866448 7.84054 -0.734478 -0.0669412 -0.675323 a M ^
-2.00804 0.199517 7.85475 -0.714032 -0.0724666 -0.696353 C 2 B
-2.03866 0.201666 7.82185 -0.720416 -0.0361274 -0.692601 C 2 B
-2.03017 0.947122 7.71319 -0.554389 -0.107994 -0.825221 ~ f q
-2.02855 0.359003 7.78272 -0.650375 -0.226505 -0.725057 é z á
-2.01138 1.29999 7.66955 -0.553256 0.513728 -0.655737 @ 1 5
-2.01258 0.9264 7.7125 -0.532423 -0.10361 -0.840113 s [ a
-2.02849 -0.40005 7.86679 -0.627071 0.159695 -0.762417 ã s Å
-2.00782 0.996221 7.69877 -0.700197 -0.0274478 -0.713422 M D N
-2.00385 0.989613 7.69185 -0.78788 0.170247 -0.591829 5 / ?
-1.9941 0.992913 7.68528 -0.719775 -0.0452396 -0.692732 G : S
-1.95631 0.827763 7.73029 -0.563529 -0.0590567 -0.823983 Å k q
-1.98303 0.824171 7.70327 -0.486619 -0.284007 -0.826161 Å k q
-1.98305 0.549277 7.73611 -0.704856 -0.162528 -0.69048 B / @
-1.99655 0.049927 7.78703 -0.506828 -0.196779 -0.839288 Ñ l {
-1.97175 1.47216 7.61873 -0.709601 -0.141391 -0.690272 2 * 7
-1.9591 1.58967 7.57707 -0.734628 -0.348918 -0.581874 7 / /
-1.97851 -0.631126 7.8416 -0.669557 0.00946199 -0.7427 | j {
-1.95983 0.567518 7.69777 -0.746089 -0.0492054 -0.664026 D < S
-1.95265 1.2601 7.61051 -0.659202 -0.0234172 -0.751601 q g |
-1.94279 1.13005 7.61107 -0.471182 0.735685 -0.486575 u d t
-1.94184 0.556169 7.68704 -0.759319 -0.159195 -0.630945 à v Ñ
-1.9518 -0.105504 7.76132 -0.732024 -0.124006 -0.669898 å o Ü
-1.91865 0.197402 7.7525 -0.829931 -0.358818 -0.427159 å u É
-1.93634 0.543374 7.68828 -0.75806 -0.147844 -0.635206 ] C P
-1.94538 0.198409 7.72443 0.559189 0.766177 -0.316671 å u É
-1.93347 1.1408 7.60928 -0.54359 0.622706 -0.562803 I 9 B
-1.94275 0.321678 7.70826 -0.818484 0.149249 -0.554806 8 , 8
-1.9362 0.360794 7.69574 -0.727487 -0.00841178 -0.68607 B - 4
-1.9362 0.360794 7.69574 -0.727487 -0.00841178 -0.68607 B - 4
-1.94681 -0.634789 7.81377 -0.679827 -0.00655452 -0.733343 H @ U
-1.9489 -0.663134 7.81274 -0.681126 -0.0112118 -0.73208 y g ~
-1.94308 -0.404898 7.78277 -0.736043 -0.0507715 -0.675028 ç u Ä
-1.941 -0.281498 7.76563 -0.763556 -0.00935449 -0.645673 Ä i }
-1.90902 0.819555 7.62832 -0.768647 -0.0168224 -0.639452 K 7 M
-1.92844 -0.342676 7.76154 -0.809267 -0.0548552 -0.584874 ^ A K
-1.91419 0.540393 7.65603 -0.76296 0.0903272 -0.640104 5 - 7
-1.91419 0.540393 7.65603 -0.76296 0.0903272 -0.640104 5 - 7
-1.90127 0.684011 7.63088 -0.685307 -0.20427 -0.69902 y f o
-1.90636 0.854185 7.60242 -0.75126 -0.0760285 -0.655613 ~ g y
-1.9042 0.713572 7.61983 -0.668762 -0.245851 -0.701652 x e m
-1.95214 1.67805 7.44165 -0.701528 -0.508365 -0.499423 ) $ !
-1.95214 1.67805 7.44165 -0.701528 -0.508365 -0.499423 ) $ !
-1.89661 0.79149 7.61063 -0.728367 -0.0913577 -0.67907 i W d
-1.89441 0.818715 7.60779 -0.712414 -0.0578785 -0.699369 ; * <
-1.89421 0.81876 7.60794 -0.712013 -0.060006 -0.699598 ; * <
-1.90967 -0.272199 7.73515 -0.646184 0.00736803 -0.763146 9 * 3
-1.90967 -0.272199 7.73515 -0.646184 0.00736803 -0.763146 9 * 3
-1.90206 0.403513 7.65242 -0.777311 0.0276992 -0.628506 x b u
-1.88841 0.884003 7.60192 -0.712187 -0.103 -0.694392 3 + :
-1.89618 0.538266 7.63762 -0.573132 0.566654 -0.591966 6 0 >
-1.88025 0.797492 7.60511 -0.685896 -0.0540737 -0.725688 4 $ 5
-1.88025 0.797492 7.60511 -0.685896 -0.0540737 -0.725688 4 $ 5
-1.88339 0.665142 7.60867 -0.725534 -0.0760017 -0.683977 4 * 6
-1.88539 0.531145 7.62427 -0.652268 -0.0225774 -0.757652 k f r
-1.88529 0.412306 7.63746 -0.729767 -0.132895 -0.670655 4 ( :
-1.88215 0.466987 7.62966 -0.741304 -0.060329 -0.668453 N 7 M
-1.87333 0.748971 7.59175 -0.730454 0.0366172 -0.68198    
-1.8702 0.538498 7.6154 -0.681919 -0.0296574 -0.730826 8 / 6
-1.88905 -0.618377 7.7461 -0.829459 0.0117155 -0.558445 W @ M
-1.87171 0.316355 7.63846 -0.712539 -0.110524 -0.692873 H 7 H
-1.87479 -0.437783 7.72197 -0.732475 0.0334999 -0.679969 G - A
-1.87479 -0.437783 7.72197 -0.732475 0.0334999 -0.679969 G - A
-1.86668 0.453753 7.60441 -0.718658 -0.115824 -0.68565 N ? Z
-1.85526 0.668303 7.58214 -0.733304 -0.148275 -0.663536 w f r
-1.84737 1.06499 7.53162 -0.690738 -0.0126166 -0.722995 o d n
-1.85899 0.350509 7.61288 -0.719116 -0.0913951 -0.688854 Ü o |
-1.87231 -0.5443 7.7163 -0.780382 -0.0109171 -0.625207 V G b
-1.87274 -0.544438 7.71609 -0.778878 -0.0121066 -0.627058 V G b
-1.85241 0.122235 7.62695 -0.694921 -0.380926 -0.609902 ~ i }
-1.85897 -0.496476 7.69988 -0.731836 0.0179286 -0.681245 Y B ^
-1.83923 0.458189 7.58253 -0.745175 -0.11787 -0.65637 F = V
-1.84561 -0.117638 7.65038 -0.804967 0.117924 -0.581482  p à
-1.82537 1.0963 7.50405 -0.646693 0.0627518 -0.760164 j P `
-1.83756 -0.299062 7.66091 -0.713212 0.00759805 -0.700907 y d {
-1.81075 1.0926 7.49251 -0.680828 0.0819234 -0.727848 5   )
-1.81449 -0.429157 7.66655 -0.287211 -0.754473 -0.590153 ò ~ ä
-1.81784 0.110746 7.59341 -0.715939 -0.114941 -0.688636 Y D \
-1.81573 -0.276176 7.63689 -0.575344 0.113291 -0.810027 â z å
-1.78499 0.790675 7.50029 -0.659941 0.16484 -0.733011 / ' 0
-1.76591 1.26282 7.44574 -0.757748 -0.0127556 -0.652423 $  $
-1.77409 0.288235 7.5613 -0.560925 -0.0831535 -0.82368 $  .
-1.78054 0.162739 7.56839 -0.793282 0.0900339 -0.602161 ? 3 E
-1.78029 0.162722 7.56857 -0.793236 0.0895068 -0.6023 ? 3 E
-1.78459 -0.323275 7.62323 -0.738059 0.112584 -0.665277 C 4 B
-1.79119 -0.532015 7.63655 -0.682326 0.161659 -0.71295 U D e
-1.7923 -0.531558 7.63569 -0.682418 0.158439 -0.713585 U D e
-1.7645 0.984962 7.45017 -0.577666 0.329003 -0.747034 / % 1
-1.75812 1.35772 7.39788 -0.815654 -0.0873451 -0.571909 / ) <
-1.72714 0.647228 7.51101 -0.746783 -0.0483787 -0.663306 A 5 J
-1.75253 0.645271 7.48834 -0.76293 -0.00135292 -0.64648 A 5 K
-1.7584 -0.313572 7.59254 -0.818614 0.290532 -0.495441 v d Ä
-1.78179 1.62048 7.3132 -0.676306 -0.5327 -0.508763 A 0 8
-1.74245 0.764871 7.45059 -0.777191 -0.0126418 -0.629137 ` S h
-1.74608 -0.653419 7.61472 -0.74763 0.00604549 -0.664088 M 6 S
-1.72976 0.884834 7.4296 -0.710403 -0.160996 -0.685134 $   -
-1.73826 -0.108277 7.54412 -0.595495 -0.313731 -0.739567 / ' 3
-1.73694 0.129994 7.51247 -0.702051 -0.109759 -0.703618 E 6 M
-1.73536 0.129489 7.51366 -0.701895 -0.106437 -0.704283 E 6 M
-1.72418 0.758474 7.43301 -0.697726 0.0397881 -0.715259 , " )
-1.70711 0.976754 7.41216 -0.571828 0.398833 -0.7169 $   
-1.72595 -0.289742 7.55743 -0.675404 0.0401795 -0.736353 ^ H e
-1.7255 -0.769133 7.59616 -0.686367 -0.150689 -0.711473 Ö p à
-1.71331 -0.304139 7.54419 -0.600529 0.208437 -0.771958 = 1 D
-1.7051 -0.463805 7.55265 -0.715062 -0.126994 -0.687429 H 8 R
-1.6956 0.0883009 7.48453 -0.750998 -0.11124 -0.650867  l Ä
-1.68621 0.953646 7.37685 -0.760891 -0.00517965 -0.648859 c V p
-1.69479 -0.664483 7.56419 -0.721418 0.0503491 -0.690667 P < X
-1.68214 0.852084 7.3778 -0.728938 -0.149268 -0.668109 > 5 ?
-1.69551 -0.86055 7.58051 -0.68968 -0.0781748 -0.719882 S < U
-1.69268 -0.706895 7.56074 -0.628051 0.0171446 -0.777984 W E g
-1.66796 1.11881 7.3472 -0.752594 -0.132327 -0.645052 h R ^
-1.68712 -0.0345403 7.47686 -0.808216 -0.046471 -0.58705 L B a
-1.68367 -0.792872 7.56642 -0.616023 -0.105038 -0.780694 G : S
-1.66297 0.155063 7.43322 -0.627327 -0.0314439 -0.778121 G 7 O
-1.66323 0.438353 7.39426 -0.73307 -0.117847 -0.669866 h Y t
-1.6577 -0.694064 7.53126 -0.606238 -0.00924107 -0.79523 R ? L
-1.62346 -0.790327 7.54987 -0.76994 -0.158987 -0.617994 | j Å
-1.64935 -0.781061 7.52666 -0.77084 -0.332659 -0.543271  k Ç
-1.61715 0.988987 7.31193 -0.804562 -0.0395333 -0.592552 t ^ c
-1.61342 -0.511623 7.46457 -0.799875 -0.0336147 -0.599224 F 7 B
-1.606 0.0420164 7.39716 -0.698786 0.0523868 -0.71341 H = X
-1.60736 -0.658338 7.48072 -0.736811 -0.108581 -0.667323 ( # #
-1.60073 0.182127 7.37064 -0.660941 -0.085437 -0.745559 à v â
-1.58852 -0.881886 7.49254 -0.667153 -0.144295 -0.730812 0 + 2
-1.58928 -0.472815 7.42945 -0.632719 -0.439441 -0.63762 Ç o y
-1.58352 -0.307676 7.40985 -0.730555 0.174399 -0.660208 ? 8 S
-1.57986 0.0319925 7.36536 -0.728454 -0.0312563 -0.684381 É s ì
-1.56256 0.622655 7.29955 -0.691637 -0.0582692 -0.71989 %  +
-1.56083 0.0537759 7.35334 -0.747658 -0.0409201 -0.662821 ; 1 F
-1.56292 -0.670558 7.43273 -0.708328 -0.26032 -0.656129 x p Ñ
-1.55698 -0.785015 7.44054 -0.69347 -0.149884 -0.704723 ã t ä
-1.54876 0.0414301 7.33285 -0.737026 -0.0590726 -0.673278 Z F a
-1.54455 0.0199861 7.33255 -0.715893 -0.101114 -0.690849 ^ K h
-1.54455 0.0199861 7.33255 -0.715893 -0.101114 -0.690849 ^ K h
-1.53811 0.0428899 7.32272 -0.737204 -0.0587113 -0.673115 ^ I \
-1.5359 0.033811 7.31815 -0.704637 -0.0879042 -0.704102 ì Ö ä
-1.53788 -0.316237 7.35963 -0.639348 0.206585 -0.740646 H : Z
-1.52801 -0.647451 7.38893 -0.46742 -0.310133 -0.82785 u f É
-1.89964 1.50161 6.82973 -0.544216 -0.200447 -0.814647 y d ê
-1.51131 -0.0132452 7.30752 -0.816662 -0.208014 -0.538325 M 4 D
-1.50915 -0.0299277 7.30827 -0.811675 -0.196898 -0.549922 Q 7 H
-1.51253 -0.903725 7.40115 -0.722859 -0.0929656 -0.684713 r h ~
-1.4825 -0.674117 7.35863 -0.796114 0.00237375 -0.605142 à r y
-1.49116 -0.54758 7.33551 -0.785631 -0.0142888 -0.61853 U A c
-1.47974 -0.324889 7.31538 -0.699879 -0.136208 -0.701154 9 , >
-1.47773 -0.146697 7.28461 -0.625254 -0.380888 -0.681162 | i |
-1.84609 0.943987 6.86217 -0.688413 -0.0931199 -0.719316   %
-1.4726 -0.676421 7.33702 -0.789672 0.0177499 -0.613272 Ñ q á
-1.8395 0.834622 6.8645 -0.745557 -0.0962239 -0.659459 ` R }
-1.83177 0.884859 6.85459 -0.71597 -0.0884693 -0.692503  n u
-1.8314 0.960543 6.8437 -0.695372 -0.0719228 -0.715042   +
-1.81476 0.966075 6.8253 -0.692722 -0.0617001 -0.718561 W M 
-1.42871 -0.893517 7.32365 -0.452782 -0.102889 -0.885665 6 * ?
-1.80707 0.858175 6.83019 -0.731421 -0.103572 -0.674015 U K z
-1.63595 0.614654 6.95045 -0.670972 -0.449998 -0.58932 f Z {
-1.37439 -0.497505 7.21723 -0.508392 -0.669368 -0.541741 L < L
-1.37113 -0.174989 7.17509 -0.726441 -0.0669565 -0.683959 Ñ u ê
-1.75577 0.803047 6.78679 -0.713554 -0.0857562 -0.695332 Å o ã
-1.33324 -0.517483 7.22432 -0.62104 -0.368397 -0.691804 t c y
-1.35881 -0.511348 7.20596 -0.465423 -0.719267 -0.515787 t c y
-1.36291 -0.891097 7.24544 -0.753903 0.101527 -0.649093 å { ñ
-1.73926 0.965055 6.75463 -0.681482 -0.0292226 -0.731251 5 - G
-1.32665 -0.496176 7.18008 -0.652142 -0.350669 -0.672118 M 9 K
-1.72533 1.13224 6.6886 -0.717601 -0.172871 -0.674658   $
-1.30346 -0.161808 7.11065 -0.73843 -0.135112 -0.660656 ç v ~
-1.28433 -0.828015 7.15837 -0.733766 -0.0480718 -0.677699 I > X
-1.28047 -0.919528 7.17002 -0.724374 -0.127294 -0.677553 K ? S
-1.68418 1.00376 6.61019 -0.592903 -0.528086 -0.60794 Z S Ö
-1.63464 0.873978 6.65797 -0.72561 -0.118714 -0.677788 = 1 Q
-1.37278 0.569939 6.85419 -0.704129 -0.0275576 -0.709538 E A y
-1.6303 0.893081 6.65031 -0.689313 -0.0667622 -0.721381 f X à
-1.22783 -0.845331 7.10101 -0.711611 -0.107127 -0.694359 U I g
-1.20618 -1.09647 7.10142 -0.752924 -0.0784077 -0.65342 T ? a
-1.59874 0.934178 6.6121 -0.707673 0.00248247 -0.706536 + % >
-1.1845 -0.930836 7.07172 -0.700723 -0.123406 -0.70268 z h É
-1.2462 -0.584855 6.94509 0.989774 -0.099693 -0.102026   >
-1.29304 0.368925 6.79839 -0.625459 0.257173 -0.736657 K E 
-1.1133 -1.13097 7.01681 -0.749202 -0.0593052 -0.659681 A ) 5
-1.11176 -1.13148 7.01759 -0.753628 -0.0526132 -0.655192 A ) 5
-1.24319 0.285549 6.74624 0.972581 0.227639 -0.0476111 *  <
-1.21252 0.476794 6.71296 -0.640124 -0.0492126 -0.766694 !  6
-1.19783 0.497594 6.69517 -0.671232 -0.019452 -0.740992   6
-1.30716 -0.586419 6.73064 -0.903418 0.0369527 -0.427166 ,   <
-1.45214 0.824984 6.47594 -0.72137 0.101949 -0.685005 f Z å
-1.45315 0.8248 6.47552 -0.722821 0.0683983 -0.687642 f Z å
-1.14904 -0.215062 6.7054 -0.383816 0.470648 -0.794466 %  H
-2.10183 0.962639 6.03292 0.975375 -0.0687618 -0.209562 ; 2 _
-2.08202 0.965536 6.02245 0.960329 -0.135421 -0.243782 4 - Z
-2.10056 0.961803 6.01352 0.93352 -0.227117 -0.277415 7 / [
-1.1047 -0.242495 6.65415 -0.326702 0.0652819 -0.94287 !  /
-1.1047 -0.242495 6.65415 -0.326702 0.0652819 -0.94287 !  /
-1.35265 0.89484 6.3731 -0.718675 -0.0623003 -0.692549 O A b
-1.21969 -0.870701 6.64464 -0.940498 0.272771 -0.202633 b K u
-1.2096 -0.840878 6.6402 -0.935313 0.291633 -0.200351 \ G t
-1.2096 -0.840878 6.6402 -0.935313 0.291633 -0.200351 \ G t
-2.05644 1.41006 5.86228 0.997993 0.0587402 -0.0236373 : . A
-2.05743 1.4053 5.82836 0.998193 0.0563172 -0.0209363 0 + B
-1.2432 0.776493 6.27305 -0.621108 -0.491846 -0.610174 @ . X
-1.05962 0.295409 6.39161 -0.695516 -0.043343 -0.717202 "  3
-1.0465 -0.0345788 6.40664 -0.8125 0.132276 -0.567755 L B w
-1.1553 0.447523 6.27766 -0.745719 -0.0192702 -0.665981 "  8
-1.02391 0.122227 6.37395 -0.761484 -0.181703 -0.622195 !  3
-1.01634 0.544372 6.32476 -0.675841 0.0665737 -0.734035 #  <
-2.04301 1.19389 5.78489 0.9997 0.0241933 -0.00369187 %   G
-1.1762 0.899166 6.19028 0.787129 0.607676 -0.105634 R @ m
-0.998937 0.456323 6.3128 -0.729503 -0.0568917 -0.681608 ` U à
-0.998937 0.456323 6.3128 -0.729503 -0.0568917 -0.681608 ` U à
-2.058 1.39167 5.72762 0.988699 0.133534 -0.0681427 8 . <
-0.973351 0.538468 6.28385 -0.772156 0.199729 -0.603227 %  ?
-0.937912 0.230588 6.27541 -0.696765 -0.047691 -0.715713 6 + M
-2.04382 1.24035 5.65385 0.976698 0.192044 0.0958152 % ! 6
0.389781 1.02695 6.66984 0.202118 0.974942 -0.0929383 = 0 Q
-1.07026 0.808318 6.09275 -0.752037 -0.0536932 -0.65693 O < g
-1.06197 0.789612 6.08724 -0.727388 -0.0712117 -0.682522 ? . Y
-1.06055 0.770484 6.08609 -0.727217 -0.074431 -0.682361 q ` ê
-2.04285 1.25558 5.62277 0.997745 0.067095 -0.00190697 X L x
-0.853221 -0.426056 6.25964 -0.556957 0.191759 -0.808101 V H }
-1.10565 0.981125 5.99865 -0.653572 0.360451 -0.665521 E ; T
-0.833695 0.00199498 6.17015 -0.763111 -0.11018 -0.636806 p ë †
-0.824346 -0.0285273 6.16973 -0.731388 -0.13595 -0.668274 å © ∏
-2.10421 1.4686 5.50634 0.984341 -0.0687202 0.162326 0 - M
-0.766699 -0.160988 6.16771 -0.618786 0.114564 -0.777161 1 + E
-0.787283 -0.600303 6.19742 -0.772327 -0.108664 -0.625861 / ' E
-0.855767 -0.0136302 6.10186 -0.944054 -0.274338 -0.18303 p Ä ó
-0.854125 0.425938 6.02839 -0.576638 0.550742 -0.603467 O i y
-2.05983 1.36541 5.48693 0.804648 0.404615 -0.434543 D < b
-2.05983 1.36541 5.48693 0.804648 0.404615 -0.434543 D < b
-2.05443 1.35087 5.47926 0.810029 0.405523 -0.423561 ë x •
-2.09378 1.41025 5.45324 -0.719956 -0.641702 -0.264352 \ R |
-0.876487 0.265642 6.01307 0.852906 0.505034 -0.132256 N M ]
-0.836309 0.416632 6.00751 -0.498756 0.80656 -0.31734 ? P ]
-2.09192 1.37245 5.45213 0.849627 0.413593 -0.327223 ë z ©
-0.921155 0.320676 5.98071 -0.967667 -0.0481977 -0.247583 m { á
-0.904075 0.717083 5.92739 -0.687685 0.00666339 -0.725979 ` K s
-0.795529 0.454976 5.99008 -0.590197 0.599219 -0.540929 ! ! H
-0.891265 0.868364 5.90581 -0.863543 -0.380693 -0.330706 W A k
-0.722927 -0.2664 6.08864 -0.583641 0.267971 -0.766521   B
-2.07279 1.33778 5.43698 -0.547286 -0.74617 -0.37909 à s £
-0.659594 -0.750668 6.08291 -0.659684 0.306811 -0.686064 /  C
-0.613654 0.49983 5.88396 -0.336363 -0.196802 -0.920939 '  =
-0.604264 -0.399282 5.98519 -0.778238 -0.0656575 -0.624528 !  8
-0.765168 0.740665 5.79974 -0.705324 -0.0732736 -0.705088 | h ì
-0.665134 -0.868002 5.91739 -0.606641 -0.551891 -0.572191 L B q
0.13606 0.116996 6.03618 -0.732034 -0.131975 -0.668362 + ! ?
-0.663388 -0.887458 5.91042 -0.6429 -0.526409 -0.556393 &  4
-0.660111 -0.855435 5.90242 -0.71872 -0.339329 -0.606875 6 ( G
3.58737 -0.293263 7.03966 0.403303 0.641503 -0.65255 ) " O
-0.614994 -0.747643 5.88497 -0.669679 0.220118 -0.70928 m Z ç
-1.9256 0.88136 5.33458 -0.724 0.164351 -0.669935 T @ v
-0.470725 0.231736 5.79722 -0.694302 -0.0671817 -0.716541 - # A
-1.89704 1.50469 5.22748 -0.607808 -0.629119 -0.484539 ∂ ü ï
-1.81528 1.27521 5.25995 -0.781239 -0.242949 -0.575015 N ? t
-0.602633 0.739622 5.62101 -0.691042 0.0819028 -0.71816 2 $ =
-1.8161 1.37115 5.17493 -0.590857 -0.60664 -0.531861 0 % ?
-0.196802 0.167304 5.68986 0.897677 0.440408 -0.0147012 "  3
-0.177295 -0.116329 5.71107 -0.776697 -0.131937 -0.615901 . # @
-0.177295 -0.116329 5.71107 -0.776697 -0.131937 -0.615901 . # @
-0.1856 0.123392 5.67223 -0.876068 -0.293032 -0.382932 2 ( E
-0.1856 0.123392 5.67223 -0.876068 -0.293032 -0.382932 2 ( E
4.73908 0.292187 6.79353 -0.165351 -0.986151 0.0128523 ` X à
4.73908 0.292187 6.79353 -0.165351 -0.986151 0.0128523 ` X à
-0.166044 -0.0193476 5.6814 -0.766301 -0.0477141 -0.640707 n ^ é
-1.74313 1.37049 5.11065 -0.542291 -0.689563 -0.480025 < / F
-0.415137 0.690495 5.44357 -0.728842 -0.128115 -0.672589 9 / ?
-1.62612 1.09386 5.08298 -0.734647 -0.0725674 -0.674558 8 ) \
-1.64693 1.31815 5.05381 -0.766407 -0.381514 -0.516785 ` O r
-0.13982 -0.683608 5.54267 -0.863903 0.161811 -0.476958 Å o à
0.0294527 0.0699401 5.43603 -0.906647 0.117481 -0.405203 J B u
-0.0582684 -0.595077 5.48078 -0.424813 0.629646 -0.650446 } h Å
-0.0582684 -0.595077 5.48078 -0.424813 0.629646 -0.650446 } h Å
-0.409686 0.911321 5.199 -0.61591 -0.660787 -0.42897 / ( >
0.361779 -0.675437 5.46869 -0.696827 -0.0400971 -0.716117 _ I \
0.358349 -0.622617 5.45854 -0.680819 -0.0646312 -0.729595 p X g
0.376045 -0.751338 5.45262 -0.698813 -0.015414 -0.715139 f N s
0.109062 0.364435 5.19701 -0.78953 -0.255401 -0.558044 Ñ r ù
0.498984 -0.359518 5.29192 -0.661586 -0.506174 -0.553255 ö Ñ ù
0.569834 -0.945175 5.28938 -0.744165 0.0932829 -0.66145 P D P
0.574574 -0.370004 5.22347 -0.694063 -0.016069 -0.719735 > - B
0.576338 -0.957519 5.27045 -0.926793 0.0413123 -0.373294 _ O X
0.576338 -0.957519 5.27045 -0.926793 0.0413123 -0.373294 _ O X
0.611738 -0.962919 5.25359 -0.737717 -0.113046 -0.665579 E 8 G
0.614476 -0.57784 5.20046 -0.747007 -0.0133328 -0.664683 ; / ?
0.633254 -0.971776 5.22276 -0.777518 -0.0241957 -0.628396 T F ]
0.637001 -0.385069 5.15731 -0.709433 -0.212242 -0.672055 J ; W
0.65259 -1.25174 5.23756 -0.719001 -0.0723203 -0.691236 a G W
0.678603 -0.953655 5.17929 -0.651831 -0.220025 -0.725745 a O d
0.670769 -0.96693 5.17404 -0.645658 -0.0134907 -0.763508 î z ã
0.683968 -1.1724 5.19341 -0.707601 -0.211432 -0.674238 J 5 I
0.702415 -1.75213 5.23942 -0.713306 -0.0864457 -0.695501 õ ~ â
0.70729 -1.58422 5.21789 -0.706385 0.0399032 -0.706702 R 7 I
0.697079 -0.982751 5.15355 -0.689391 0.00939054 -0.724329 Q = Z
0.723774 -1.38867 5.18024 -0.65559 -0.0803977 -0.750825 _ K c
0.735222 -0.437572 5.06437 -0.7809 0.0438931 -0.623112 â u å
-1.27998 1.2179 4.71753 -0.638111 -0.201795 -0.743029 R ; a
0.755874 -0.574572 5.05715 -0.756811 -0.12905 -0.640768 = 4 J
0.766074 -1.3711 5.12351 -0.604233 0.122859 -0.787279 é z é
0.772166 -1.18778 5.10365 -0.744724 0.00184232 -0.66737 O A S
0.779882 -1.46295 5.11539 -0.755188 -0.0540053 -0.65328 l S i
0.789833 -1.78577 5.14683 -0.714953 -0.0758637 -0.695045 î | Ä
0.784809 -1.40524 5.09529 -0.715229 -0.00548691 -0.698868 ã z ç
0.794104 0.340938 4.90738 -0.74329 -0.176352 -0.645307 ô Ö ú
0.820424 -1.31943 5.05994 -0.73847 -0.105525 -0.665978 â | ì
0.825021 -1.78086 5.10128 -0.708793 -0.155404 -0.688086 T ; L
0.814396 0.373451 4.88028 -0.697056 -0.16937 -0.696726 U A ^
0.83044 -1.15078 5.0315 -0.780717 0.0457116 -0.623211 c H R
0.836038 -1.11373 5.02541 -0.495425 0.308289 -0.812104 F 2 B
0.839936 -1.31295 5.04243 -0.760597 -0.055469 -0.64685 O > S
0.839936 -1.31295 5.04243 -0.760597 -0.055469 -0.64685 O > S
0.840886 -1.39915 5.04668 -0.689751 -0.259473 -0.675957 F - 8
0.837589 -0.631185 4.9673 -0.751443 -0.0475565 -0.658082 Y A N
0.837726 -1.20405 5.02439 -0.781713 0.04585 -0.621951 à u à
0.844531 -1.03995 5.00504 -0.953738 0.0254057 -0.299563 ` F W
0.850237 0.480058 4.82349 -0.690942 0.000445868 -0.72291 0 * :
0.870951 -1.40199 5.01138 -0.736042 -0.00659975 -0.676904 Q 7 D
0.873375 -1.40286 5.0115 -0.736387 -0.00627868 -0.676531 Q 7 D
0.895455 0.00180963 4.85114 -0.714698 -0.242533 -0.656036 Ö r à
0.919531 -1.80301 5.01639 -0.700222 -0.0794756 -0.709488 ç w â
0.919461 -1.39078 4.97269 -0.837627 -0.0339743 -0.545185 î x à
0.925083 -1.77337 4.99764 -0.717162 -0.143316 -0.682011 ï { ä
0.941915 -1.79742 4.98696 -0.69673 -0.0805864 -0.712792 Z ? O
0.967945 -0.972516 4.87804 -0.646648 0.0963413 -0.75668 è ~ ô
0.957128 0.302657 4.7284 -0.725635 -0.06033 -0.68543 ] E a
0.999529 -0.92815 4.83456 -0.800898 0.0125772 -0.598669 Q ? ]
0.999529 -0.92815 4.83456 -0.800898 0.0125772 -0.598669 Q ? ]
1.01628 -0.817602 4.8161 -0.859133 -0.174249 -0.481174 V C Z
1.00927 -0.979946 4.82753 -0.754158 0.030462 -0.655986 ç t Ü
1.02586 -1.4066 4.86449 -0.696568 -0.175623 -0.695665 ô  ä
1.03203 0.446954 4.66135 -0.77333 0.0629893 -0.630867 Ç r â
1.04726 -1.81991 4.87878 -0.692248 -0.328821 -0.642393 ç } ì
1.03916 -0.828588 4.77491 -0.781994 0.327337 -0.530412 [ F a
1.03515 0.192466 4.66463 -0.707199 -0.107013 -0.698869 ] H f
1.10269 -1.41706 4.79457 -0.589268 0.297536 -0.751156 ì y á
1.1004 -0.602459 4.6933 -0.716968 -0.181804 -0.672981 J 9 G
1.08568 0.78214 4.54857 -0.774832 -0.0891022 -0.625856 D 8 M
1.09756 -0.0495348 4.62823 -0.687912 0.0918847 -0.719954 \ L V
1.08223 0.42193 4.57447 -0.779933 0.250336 -0.573616 û é ¶
1.1142 0.299716 4.58483 -0.725008 -0.0865574 -0.68328 õ Ñ †
1.14128 -1.21544 4.7235 -0.699212 0.20849 -0.683839 O 5 F
1.13051 0.26927 4.57349 -0.798546 -0.0587618 -0.599059 E 6 L
1.11742 0.29887 4.56682 -0.795989 0.0372143 -0.604166 å } ú
1.15166 -1.43447 4.7339 -0.722372 -0.0197034 -0.691224 S > U
1.17205 0.78594 4.44685 -0.694056 -0.0392424 -0.71885 ä | ó
1.23982 0.101618 4.46271 -0.730586 -0.0146524 -0.682663 î  ì
1.26526 -1.03231 4.57068 -0.704337 -0.0664337 -0.70675 g J b
1.26526 -1.03231 4.57068 -0.704337 -0.0664337 -0.70675 g J b
1.28811 0.0356509 4.43724 -0.695256 -0.114332 -0.709611 t ` w
1.31583 -0.0606575 4.42391 -0.729849 -0.0840344 -0.678424 w _ v
1.31458 -0.569352 4.45298 -0.723478 -0.0865374 -0.684902 Õ ∞ ¶
-1.15352 -0.349388 4.41339 -0.243389 -0.0189563 -0.969744 Î ¿ ¨
-1.15468 -0.342112 4.41146 -0.243555 -0.0187172 -0.969706 Ï ¡ ∞
2.67631 -1.17628 4.09024 -0.273675 -0.608507 -0.744863 h f É
-11.2805 1.80393 4.89228 -0.011114 -0.999797 -0.0168268 √ £ Ç
-11.2542 1.78161 4.8925 -0.0111434 -0.999757 -0.019037 p D 0
6.27859 -0.338195 3.30683 -0.385767 -0.922181 -0.0276856 ™ v p
2.18204 -0.651072 3.75183 -0.319584 -0.103214 -0.94192 À ® õ
8.80431 -1.38141 2.92087 -0.866912 -0.0158981 -0.498207 Ï ¡ Æ
8.7754 -0.812782 2.86653 -0.843734 -0.112388 -0.524864 Ù « µ
8.9797 -2.60037 2.93549 -0.856201 -0.056658 -0.513527 ≥ ã ê
8.87005 -2.91991 2.97377 -0.86243 -0.104904 -0.495187 Æ á ~
8.86689 -3.09349 2.93965 -0.872135 -0.166713 -0.459986 ˘ – π
-2.19017 1.0567 7.87887 -0.748423 -0.0658493 -0.659944 V ? G
-2.18984 1.62 7.80701 -0.571999 -0.371693 -0.731205 à y }
-2.20227 -0.389193 8.04181 -0.657791 0.0127948 -0.753092 z c h
-2.18969 0.858288 7.89532 -0.722214 -0.122332 -0.680766 G 6 ?
-2.19879 -0.45766 8.04318 -0.477195 -0.0716066 -0.875875  m z
-2.17579 0.580661 7.92628 -0.710858 -0.0579221 -0.700947 L A C
-2.18911 -0.406036 8.03713 -0.669435 0.192886 -0.717392 (  
-2.17895 0.567509 7.92378 -0.714848 -0.0631397 -0.696424 ~ h t
-2.18796 0.000247731 7.98641 -0.694279 -0.167361 -0.699976 ` F R
-2.19015 -0.449204 8.0349 -0.551903 -0.105627 -0.827192 9 ! )
-2.19015 -0.449204 8.0349 -0.551903 -0.105627 -0.827192 9 ! )
-2.17656 1.16616 7.8459 -0.736229 -0.0856242 -0.671294 @ 3 ;
-2.17105 1.31665 7.81789 -0.713012 -0.0616077 -0.69844 ; . 6
-2.16264 1.34001 7.81676 -0.717363 -0.0576413 -0.694311 w f q
-2.15904 0.702534 7.89466 -0.774682 -0.031722 -0.631555 F 8 E
-2.17745 -0.252805 7.99502 -0.706656 -0.0592267 -0.705074 Z A M
-2.16215 0.58423 7.90056 -0.730997 -0.0778446 -0.677926 u d t
-2.1732 -0.107403 7.97521 -0.742342 -0.00227895 -0.670017 R = P
-2.17229 -0.31337 7.99588 -0.719712 -0.0674231 -0.690991 V < I
-2.14483 0.725299 7.87389 -0.753925 -0.293565 -0.587721 Ü j p
-2.14624 0.175498 7.92113 -0.658343 -0.069292 -0.749522 Ç g w
-2.1374 0.352752 7.90278 -0.716793 -0.132832 -0.684517 C . <
-2.1374 0.352752 7.90278 -0.716793 -0.132832 -0.684517 C . <
-2.12596 0.801477 7.83566 -0.626243 -0.136077 -0.767661 s J W
-2.12852 0.869182 7.82285 -0.768332 -0.132134 -0.626264 k A S
-2.12613 -0.136496 7.93094 -0.7157 -0.0453323 -0.696935 Ñ h y
-2.11267 0.12798 7.90265 -0.716198 0.0236632 -0.697496 6 ' 5
-2.1229 -0.394387 7.95669 -0.722727 -0.11298 -0.681836 x a f
-2.09896 0.699784 7.83042 -0.742366 -0.202264 -0.638735 7 ' 4
-2.10498 0.223711 7.88177 -0.708157 -0.0808695 -0.701408 O 4 @
-2.09278 -0.0378829 7.89163 -0.711296 -0.158686 -0.684746 à l w
-2.08717 1.02361 7.76149 -0.296448 0.699853 -0.649864 á p z
-2.0921 -0.612117 7.95043 -0.706787 0.172944 -0.685961 j \ m
-2.09148 -0.607437 7.94894 -0.703959 0.177268 -0.687763 s j v
-2.0849 -0.0231636 7.88256 -0.703415 -0.167155 -0.690845 d J X
-2.07621 1.60917 7.69201 -0.437163 -0.820384 -0.368589 Ü w 
-2.06937 0.158015 7.86067 -0.911399 0.0774263 -0.404174 $  
-2.06767 1.60164 7.68777 -0.439054 -0.821962 -0.362781 ? 1 4
-2.0785 -0.599886 7.94191 -0.696535 0.204267 -0.687833 - $ +
-2.0719 -0.0157296 7.8654 -0.696988 -0.14395 -0.702486 ] B S
-2.0719 -0.0157296 7.8654 -0.696988 -0.14395 -0.702486 ] B S
-2.0675 -0.402372 7.89934 -0.3288 -0.347195 -0.878263 Ñ f t
-2.05084 0.709396 7.77306 -0.692234 -0.221708 -0.686774 v _ m
-2.06053 -0.29087 7.88191 -0.768417 0.0485201 -0.638108 9 ( +
-2.05816 -0.357991 7.88807 -0.496179 -0.386095 -0.777648 I 3 >
-2.04696 0.00848352 7.84071 -0.736126 -0.0378338 -0.675786 Y D V
-2.04074 1.30001 7.68857 -0.681242 0.264228 -0.68271 M < H
-2.03979 -0.607929 7.9025 -0.718947 0.0983283 -0.688075 D 4 =
-2.0342 1.2888 7.68022 -0.688615 0.200774 -0.696778 ~ g t
-2.03734 0.920239 7.72015 -0.539703 -0.0870669 -0.837341 '  
-2.03324 0.799859 7.73169 -0.56902 -0.172229 -0.804086 ^ : 9
-2.02296 0.711539 7.74682 -0.641864 -0.15954 -0.750039 m \ h
-2.02356 0.736639 7.73874 -0.61962 -0.228246 -0.750982 o ^ h
-2.02088 -0.417752 7.85953 -0.521498 0.0792908 -0.84956 0 % '
-2.02337 -0.230271 7.83528 -0.774432 0.0237249 -0.632212 Ä f z
-2.01162 1.29567 7.65463 -0.631531 -0.0126257 -0.775248 7 , 6
-2.0143 0.0086529 7.80302 -0.617642 -0.17026 -0.767808 Z F Z
-2.01243 0.0334724 7.79734 -0.627384 -0.137254 -0.766518 S @ S
-1.99931 -0.410356 7.8489 -0.606614 0.0754901 -0.791405 Ä f t
-1.9812 0.817018 7.70071 -0.458885 -0.639914 -0.616388 3 % 0
-1.98468 1.14194 7.65676 -0.467623 0.678559 -0.566469 : * 1
-1.97977 1.13553 7.64785 -0.45758 0.702544 -0.545026 i Z b
-1.97373 1.21859 7.63411 -0.709164 -0.0565227 -0.702774 z c o
-2.04292 1.74081 7.5292 -0.680552 -0.443933 -0.5829   
-1.97854 0.0837289 7.7612 -0.756759 0.0966455 -0.64651 q ] p
-1.96516 -0.615497 7.83528 -0.670151 -0.0124033 -0.742121 N 7 E
-1.94055 1.47607 7.59076 -0.706231 -0.140521 -0.693896 2 * .
-1.95174 1.15495 7.62191 -0.27915 0.895874 -0.345666 x ` j
-1.93115 1.14266 7.63347 -0.677497 0.0831513 -0.730811 5 * 3
-1.94677 1.14018 7.62336 -0.465282 0.712167 -0.525671 6 * 1
-1.95087 -0.395228 7.7996 -0.698822 -0.13534 -0.702375  i x
-1.94261 0.527021 7.6931 -0.858154 -0.0388613 -0.51192  j y
-1.95175 0.675421 7.66968 -0.671706 -0.215038 -0.708921 ( # -
-1.94241 0.374555 7.70013 -0.684208 -0.0291094 -0.728706 l \ b
-1.93998 0.479571 7.68511 -0.829697 0.0163784 -0.557974 E 5 A
-1.93765 0.336334 7.70078 -0.898577 0.000937846 -0.438815 ? . :
-1.94156 -0.430863 7.78609 -0.663949 0.011172 -0.747694 0 ( /
-1.92399 0.829595 7.64616 -0.689283 -0.386756 -0.612624 ~ j o
-1.93384 0.325177 7.69595 -0.742478 -0.0848652 -0.664473 o [ n
-1.93707 0.0810432 7.72113 -0.799148 0.13136 -0.586606 o ` t
-1.9292 1.00944 7.61343 -0.638626 0.276701 -0.718048 / ( 2
-1.92358 1.13726 7.59755 -0.532178 0.575482 -0.620973 / " $
-1.92938 -0.0758175 7.72582 -0.723543 -0.049565 -0.688498 Ö q Ç
-1.92698 -0.38546 7.76305 -0.707504 -0.107729 -0.69845 N : B
-1.91373 0.705766 7.6329 -0.722077 -0.307259 -0.619836 I 5 4
-1.90381 1.00549 7.59607 -0.683598 -0.109505 -0.721597 / # +
-1.90381 1.00549 7.59607 -0.683598 -0.109505 -0.721597 / # +
-1.89513 0.800281 7.61229 -0.722543 -0.020791 -0.691013 2 & 2
-1.89693 0.538226 7.63749 -0.57547 0.561475 -0.594626 - ( 8
-1.90704 -0.2849 7.72649 -0.716425 0.0628218 -0.69483 Ä f t
-1.89186 0.317821 7.66384 -0.689179 -0.0864966 -0.71941 7 * 8
-1.9012 0.097637 7.68312 -0.6127 0.0598903 -0.788043 . * 2
-1.88966 0.668903 7.62076 -0.683296 -0.131896 -0.71813 . & 0
-1.87624 1.12717 7.55026 -0.666588 0.00865294 -0.745376 1 $ 0
-1.88803 -0.568469 7.73861 -0.813017 -0.0510821 -0.579995 @ / 7
-1.87488 0.189199 7.65017 -0.717444 0.146685 -0.680998 Ñ q Ä
-1.87216 -0.443329 7.72048 -0.732714 0.0363888 -0.679563 r ] p
-1.88198 -0.537132 7.72505 -0.780298 -0.0113983 -0.625304 m ` x
-1.86163 0.819119 7.57446 -0.719113 0.0775108 -0.690557 É m r
-1.85945 1.01757 7.5478 -0.734176 -0.094666 -0.672327 0 # -
-1.82881 -0.107014 7.69419 -0.79918 0.168417 -0.577015 ; ) 7
-1.86001 -0.101708 7.67668 -0.487118 -0.294419 -0.822212 ; ) 7
-1.85528 0.807007 7.57005 -0.721646 0.0348441 -0.691385 < . ;
-1.85536 0.315536 7.62655 -0.715617 -0.0866591 -0.693096 ? 1 >
-1.83887 1.29975 7.51871 -0.68799 0.112346 -0.716972 ( % (
-1.85441 0.796813 7.56868 -0.722024 0.0272846 -0.691329 y g t
-1.85892 -0.113731 7.66844 -0.618339 -0.054406 -0.784026 Ä d w
-1.85462 0.678565 7.57757 -0.694812 -0.165021 -0.700004 O 9 I
-1.85176 0.664843 7.57996 -0.691426 -0.0918515 -0.716585 s c i
-1.84313 1.40581 7.4935 -0.712596 -0.121414 -0.690989 , $ /
-1.85873 -0.439039 7.69884 -0.558576 -0.527407 -0.640184 z g z
-1.83696 1.26946 7.50715 -0.672603 0.170155 -0.720175 ) $ 4
-1.84235 -0.104374 7.65357 -0.805347 0.0824221 -0.587046 ? . 9
-1.84282 -0.104172 7.65334 -0.805383 0.0897472 -0.585921 ? . 9
-1.83275 0.0717735 7.62258 -0.67979 -0.415445 -0.604394 e Y f
-1.83768 -0.431793 7.67702 -0.585392 -0.453765 -0.671874 c @ L
-1.83768 -0.431793 7.67702 -0.585392 -0.453765 -0.671874 c @ L
-1.82498 -0.28655 7.65866 -0.711538 0.0127514 -0.702532 0 $ 5
-1.82047 0.887779 7.52435 -0.71306 -0.115215 -0.691571 - $ 1
-1.81284 0.165097 7.6023 -0.695843 0.154467 -0.701386 B 6 C
-1.81129 0.164921 7.60295 -0.696956 0.148059 -0.701663 B 6 C
-1.79718 1.1755 7.49275 -0.703346 -0.0471412 -0.709283 ` S h
-1.80969 0.38458 7.56592 -0.659254 -0.198445 -0.725261 B 5 E
-1.80042 0.886377 7.50463 -0.710903 -0.1206 -0.692873 %   *
-1.81988 0.456256 7.543 -0.660948 -0.0883352 -0.745215 k X j
-1.81988 0.456256 7.543 -0.660948 -0.0883352 -0.745215 k X j
-1.79721 -0.316923 7.63249 -0.429419 0.201501 -0.880339 | i ~
-1.79769 0.0946289 7.58109 -0.669335 -0.383628 -0.636255 z g {
-1.79216 0.498632 7.53116 -0.635237 0.121651 -0.762676 p ` r
-1.79457 -0.221226 7.60767 -0.645291 -0.271076 -0.714225 N ? Z
-1.78565 -0.323038 7.62286 -0.741524 0.111927 -0.661524 : . 5
-1.7876 0.524398 7.52384 -0.783895 -0.0226161 -0.620481 o ^ p
-1.74406 -0.307261 7.6326 -0.796884 0.340438 -0.499077 0 % ,
-1.77609 -0.300557 7.61573 -0.75258 0.381875 -0.536465 3 ( 2
-1.77609 -0.300557 7.61573 -0.75258 0.381875 -0.536465 3 ( 2
-1.76651 1.24868 7.42504 -0.797034 -0.116658 -0.592561 ) " $
-1.76376 0.58788 7.50002 -0.644955 0.0444745 -0.762926 0 & 3
-1.75272 1.11346 7.4431 -0.732274 -0.00282009 -0.681004   
-1.75533 1.23696 7.42508 -0.804701 -0.114423 -0.582549 #  &
-1.76348 0.0872067 7.55029 -0.398139 0.313986 -0.861915 u a t
-1.77192 1.58588 7.37354 -0.602351 -0.444593 -0.662956 f Z i
-1.77192 1.58588 7.37354 -0.602351 -0.444593 -0.662956 f Z i
-1.76186 0.886228 7.45534 -0.713921 -0.132469 -0.687582 2 ( 5
-1.74112 0.0690316 7.55679 -0.659165 -0.00907618 -0.751944 %  $
-1.75491 0.401379 7.51162 -0.504265 -0.138922 -0.852301 k Y f
-1.75973 1.35736 7.39759 -0.812962 -0.0868626 -0.575801 ' $ 4
-1.75519 1.57515 7.371 -0.622815 -0.451996 -0.638593 1 # %
-1.76368 1.58509 7.35596 -0.653878 -0.556904 -0.512154 i X e
-1.7449 0.0519578 7.53975 -0.680451 0.0364511 -0.731887 i W a
-1.7449 0.0519578 7.53975 -0.680451 0.0364511 -0.731887 i W a
-1.73829 0.289425 7.51164 -0.720044 -0.0423358 -0.692636 - " 3
-1.7439 0.25156 7.51164 -0.856519 0.0698825 -0.511363 q U d
-1.7217 0.777251 7.4376 -0.687896 0.106175 -0.718001 $ $ *
-1.7231 -0.665077 7.59858 -0.723019 0.00262282 -0.690823 ? 9 R
-1.7231 -0.665077 7.59858 -0.723019 0.00262282 -0.690823 ? 9 R
-1.71915 -0.451594 7.57217 -0.704423 0.034764 -0.708928 å { É
-1.703 0.0640935 7.50671 -0.80132 -0.055137 -0.59569 / # 2
-1.70536 0.664568 7.43171 -0.768588 -0.206419 -0.605528 7 ( 4
-1.68755 0.969152 7.38567 -0.732527 -0.0316041 -0.680004   
-1.68801 -0.29568 7.52749 -0.625637 -0.459602 -0.630353 p Z s
-1.68333 -0.666661 7.54993 -0.636342 0.0195802 -0.771159 D < Z
-1.67994 0.156818 7.44756 -0.731431 -0.0302456 -0.681244 K ; K
-1.67994 0.156818 7.44756 -0.731431 -0.0302456 -0.681244 K ; K
-1.66959 -0.681667 7.54308 -0.61803 0.0261754 -0.785719 | h Ç
-1.6616 -0.306167 7.49304 -0.726082 -0.160803 -0.668541 < / @
-1.64673 0.974365 7.34739 -0.750598 0.000304385 -0.66076   
-1.65974 -0.753129 7.53644 -0.551507 -0.152364 -0.820137 A 1 ?
