ply
format ascii 1.0
element vertex 755
property float x
property float y
property float z
property float nx
property float ny
property float nz
property uchar red
property uchar green
property uchar blue
end_header
0.123502 0.342647 5.20124 -0.851767 -0.521178 0.0535304 z i ñ
0.0412526 0.522141 5.14899 -0.742289 -0.654409 -0.144071 Ü v ©
0.0382907 0.521979 5.14813 -0.741476 -0.653881 -0.150512 Ü v ©
0.101569 0.439657 5.17165 -0.670449 -0.312293 -0.673032 { i ñ
0.0126038 0.591459 5.11685 -0.0695393 -0.607345 -0.791389 D B `
0.427638 -1.24916 5.44135 -0.678046 0.0487336 -0.733402 K 8 R
0.433421 -0.855742 5.38444 -0.67935 -0.0349536 -0.732982 b J b
0.438214 -0.340592 5.32586 -0.381602 -0.869722 -0.312992 t W x
0.447422 -1.13909 5.39936 -0.734464 -0.14157 -0.663717 a H a
0.447422 -1.13909 5.39936 -0.734464 -0.14157 -0.663717 a H a
0.45592 -0.531891 5.33322 -0.732719 -0.120194 -0.669833 B 7 N
0.456815 -0.468148 5.3245 -0.681302 -0.0484081 -0.7304 [ F \
0.174219 0.123006 5.15525 -0.973222 0.0160123 -0.229309 #  L
0.480003 -0.735733 5.33787 -0.728827 0.0135406 -0.684564 R A V
0.485168 -1.26509 5.38108 -0.720987 -0.0896397 -0.687126 Y G a
0.179989 0.414627 5.10707 -0.711767 -0.148572 -0.686523 / * O
0.181484 0.0967094 5.13288 -0.960694 0.11022 -0.254792 )   <
0.5003 -1.33337 5.3656 -0.691959 -0.112244 -0.713158 ] G Z
0.511276 -0.73455 5.30567 -0.730796 -0.0205283 -0.682287 N < H
0.525454 -0.936436 5.31764 -0.758127 0.0599062 -0.649349 \ G g
0.568211 -1.45772 5.31895 -0.786892 -0.0491491 -0.61513 Y > R
0.575017 -0.333942 5.19911 -0.691502 -0.294589 -0.659578 ^ D V
0.585569 -0.737081 5.2344 -0.691138 -0.191663 -0.696846 = 0 >
0.578461 -1.53481 5.30951 -0.682515 -0.128553 -0.719477 ` G ]
0.578461 -1.53481 5.30951 -0.682515 -0.128553 -0.719477 ` G ]
0.588492 -0.98012 5.24749 -0.778721 -0.0738841 -0.623004 T D V
0.596929 -1.3662 5.27973 -0.751215 -0.0744378 -0.655847 ` F `
0.601595 -1.2659 5.26275 -0.677799 0.0697362 -0.731933 ó ~ ä
0.594486 -1.26387 5.26026 -0.685543 0.180645 -0.705265 ó ~ ä
0.0967693 0.609334 4.91176 -0.707609 -0.0635424 -0.703742 l \ å
0.607913 0.133952 5.10722 -0.728474 -0.0357165 -0.684142 à y ê
0.614003 -0.613282 5.1804 -0.74 -0.0196993 -0.672319 Ñ u à
0.61738 -1.00793 5.21446 -0.75444 0.15125 -0.638705 j T w
0.115047 0.762881 4.87099 -0.715711 -0.255799 -0.649865 I = g
0.642403 -1.17718 5.21442 -0.706888 0.0425402 -0.706045 Ö t |
0.642879 -0.965854 5.18026 -0.718421 -0.0630866 -0.692742 | m Ä
0.657646 -1.38164 5.22152 -0.695318 0.118675 -0.708836 ` G `
0.662018 -0.994469 5.16943 -0.632792 -0.196103 -0.749078 ä u å
0.669122 -0.806999 5.14981 -0.873319 -0.0038744 -0.487133 K 6 H
0.67639 -0.781325 5.14386 -0.871586 0.00337214 -0.490231 W F X
0.67639 -0.781325 5.14386 -0.871586 0.00337214 -0.490231 W F X
0.152199 0.802531 4.83581 -0.789883 -0.186091 -0.584342 M H r
0.677058 -0.797642 5.13311 -0.82907 0.00967603 -0.559061 â { î
0.677982 -0.797842 5.13323 -0.830024 0.0139782 -0.557552 â { î
0.677941 -0.369272 5.0902 -0.701296 -0.174849 -0.691095 ï { ä
0.676164 0.32069 5.01996 -0.728294 -0.257402 -0.635084 P ? W
0.67507 -0.0231915 5.04816 -0.644856 -0.00258165 -0.7643 O 7 U
0.687269 -0.172046 5.05778 -0.814212 -0.195114 -0.5468 Z ? S
0.695383 -0.983385 5.13798 -0.693337 0.013448 -0.720488 O ? [
0.697238 -0.983793 5.13843 -0.704404 0.0303401 -0.70915 O ? [
0.685025 -1.43125 5.17604 -0.651975 0.109095 -0.750351 c J f
0.706859 -1.17021 5.15312 -0.72668 -0.0939637 -0.68052 M @ L
0.693892 -0.737571 5.10613 -0.747526 -0.207023 -0.631147 î { ç
0.71046 -1.19104 5.1504 -0.755993 0.118483 -0.643767 ç x é
0.706015 -1.74506 5.20075 -0.697438 -0.0802268 -0.71214 i J V
0.7136 -0.399459 5.07137 -0.735652 -0.0708051 -0.673649 Y @ X
0.7136 -0.399459 5.07137 -0.735652 -0.0708051 -0.673649 Y @ X
0.708459 0.183942 4.99978 -0.747948 0.0131757 -0.663627 U B V
0.720514 -1.1567 5.12996 -0.748569 -0.0371809 -0.662013 _ F X
0.718906 -1.44414 5.15536 -0.676523 0.148092 -0.721378 ^ D `
0.726107 0.330589 4.97933 -0.626425 -0.108089 -0.771951 _ F Z
0.726107 0.330589 4.97933 -0.626425 -0.108089 -0.771951 _ F Z
0.733991 0.19707 4.98476 -0.730218 0.033864 -0.682374 H 7 N
0.737594 -0.416063 5.0405 -0.816782 0.0136525 -0.576785 N A I
0.738849 -0.415874 5.04074 -0.817181 0.0122952 -0.576251 N A I
0.723871 0.18752 4.9773 -0.728128 -0.01743 -0.685219 ä | à
0.730411 0.247832 4.97011 -0.892587 -0.0922754 -0.441332 ] D ^
0.734822 0.328612 4.96022 -0.742609 0.128302 -0.657321 ü â ä
0.756094 -1.3005 5.11911 -0.719985 -0.125772 -0.682498 ` G `
0.743059 -0.468672 5.03098 -0.815983 -0.00587068 -0.578046 N ; Q
0.723958 0.389925 4.94159 -0.730468 -0.0240569 -0.682523 X J j
0.723958 0.389925 4.94159 -0.730468 -0.0240569 -0.682523 X J j
0.741976 0.482237 4.9371 -0.720761 0.0385885 -0.692108 - ! *
0.741976 0.482237 4.9371 -0.720761 0.0385885 -0.692108 - ! *
0.755267 -0.755202 5.05052 -0.679485 0.187876 -0.709227 U 9 H
0.76658 -1.18704 5.08825 -0.743163 0.000572015 -0.669111 O ? P
0.756771 -0.0174972 4.9724 -0.641423 0.283792 -0.712768 _ R b
0.763634 0.322665 4.92834 -0.733827 0.121625 -0.668361 P : Y
0.763634 0.322665 4.92834 -0.733827 0.121625 -0.668361 P : Y
0.774453 -1.48135 5.10161 -0.675642 -0.10653 -0.729493 d E Z
0.778345 -0.776164 5.02787 -0.655044 -0.0300187 -0.754994 L ; U
0.778345 -0.776164 5.02787 -0.655044 -0.0300187 -0.754994 L ; U
0.816886 -0.979089 5.01739 -0.789618 -0.189868 -0.583484 Y = J
0.807383 0.106769 4.9065 -0.73196 -0.0354119 -0.680426 U E d
0.814211 -1.11398 5.02355 -0.639667 0.0617994 -0.766164 J 1 =
0.823995 -0.217159 4.93626 -0.726314 -0.0274508 -0.686815 6 . E
0.818809 0.159818 4.89182 -0.745507 -0.0874535 -0.660735 J < T
0.811904 0.345881 4.87182 -0.698181 -0.171556 -0.695063 ` J ^
0.811543 0.401256 4.86305 -0.760388 -0.144212 -0.633256 R ; S
0.827532 -1.13427 5.00899 -0.769922 0.0447931 -0.636564 Ü s Ö
0.829457 -0.198078 4.91739 -0.736929 -0.130983 -0.663158 ë x Ü
0.841051 -1.00234 4.98901 -0.871078 -0.104045 -0.479998 T @ L
0.831063 0.314141 4.86152 -0.733647 -0.140221 -0.664906 N @ _
0.834988 -0.704949 4.95846 -0.778788 -0.0695402 -0.62342 d J X
0.838744 -1.16554 5.00027 -0.765418 -0.207646 -0.609112 ó } ä
0.848106 -0.585765 4.94522 -0.723559 -0.0672195 -0.686982 E 7 G
0.844158 -1.29291 5.01103 -0.623521 -0.219051 -0.750492 ï | è
0.843362 0.185627 4.84722 -0.714276 0.0153099 -0.699696 û è û
0.862362 0.502693 4.81102 -0.721 0.079 -0.688417 å | è
0.877404 -0.410162 4.89167 -0.769517 -0.201807 -0.605902 G 8 O
0.872624 0.242499 4.82669 -0.84821 -0.0639807 -0.525782 ä { ì
0.887501 -1.17778 4.95437 -0.64652 -0.37222 -0.66593 Q @ K
0.885085 0.227364 4.81924 -0.842056 -0.0696891 -0.534869 ó Ö ú
0.915679 -1.59211 4.99626 -0.974484 -0.22282 -0.0270587 ã q É
0.886223 0.25316 4.8145 -0.874684 -0.081972 -0.477711 í Ç ô
0.902731 -0.420101 4.87253 -0.665561 -0.0763963 -0.742423 L C ^
0.910732 -1.76723 4.99996 -0.706449 -0.129899 -0.695742 \ ? O
0.908157 -1.76609 4.99938 -0.706484 -0.131751 -0.695357 \ ? O
0.894554 -0.353535 4.86112 -0.681508 -0.122755 -0.721442 à y â
0.90808 -1.40496 4.96148 -0.889204 0.0306185 -0.456484 F ( >
0.92193 -1.61446 4.97576 -0.999602 -0.0267265 -0.00899912 B + 5
0.90957 -0.000794112 4.81906 -0.771658 -0.169838 -0.612943 { i 
0.91124 -1.44539 4.95305 -0.738144 0.102686 -0.666783 Z @ \
0.897154 0.692844 4.74741 -0.721232 -0.219302 -0.657063 ä | é
0.919131 -1.3758 4.94506 -0.75631 -0.210994 -0.619255 ^ ; R
0.911425 0.132109 4.79855 -0.729911 0.0287033 -0.68294 Ç p Ü
0.911827 0.131748 4.79865 -0.727866 0.0312168 -0.685009 Ç p Ü
0.913284 -0.283805 4.83759 -0.676238 -0.0814075 -0.732171 W A X
0.913284 -0.283805 4.83759 -0.676238 -0.0814075 -0.732171 W A X
0.919968 -1.64878 4.96411 -0.787055 0.255269 -0.561589 Y @ _
0.919968 -1.64878 4.96411 -0.787055 0.255269 -0.561589 Y @ _
0.912501 -1.58444 4.95559 -0.818544 -0.308871 -0.48434 í | é
0.921142 -0.390305 4.84501 -0.707772 -0.156091 -0.68898 \ A Q
0.904091 0.20581 4.78277 -0.61705 -0.452366 -0.643905 ë } ì
0.916278 0.153351 4.78658 -0.740911 -0.0062858 -0.671574 z k Å
0.930459 -1.37849 4.92534 -0.754557 -0.367749 -0.543512 à s Ñ
0.919577 0.00205811 4.79064 -0.785862 -0.0232713 -0.617964 z e w
0.935231 0.0201265 4.78587 -0.733179 -0.181732 -0.655303 x g x
0.919742 0.734552 4.71475 -0.758097 -0.0685474 -0.648529 < - ?
0.932961 0.129951 4.77103 -0.791269 0.0320088 -0.61063 O ; P
0.931979 0.0976207 4.77106 -0.783224 -0.0270599 -0.621151 Y B W
0.939802 -1.4237 4.91267 -0.742097 0.0547744 -0.668051 á s ä
0.944991 -0.222738 4.80106 -0.716697 -0.0883279 -0.691769 í  ë
0.94624 -0.579633 4.82464 -0.671068 0.373959 -0.640173 à v å
0.960759 -0.427649 4.81351 -0.706893 -0.172779 -0.685893 M > Z
0.974668 -0.78951 4.83461 -0.672645 -0.394866 -0.625803 J 7 K
0.979358 -0.918792 4.84453 -0.749746 0.0156445 -0.661541 ó  ë
0.965965 0.64534 4.68474 -0.65029 -0.362101 -0.667837 @ 3 O
0.962393 0.801028 4.66858 -0.636771 0.39282 -0.663487 C 8 G
0.974664 -0.0167996 4.74667 -0.737531 -0.189764 -0.648104 G 8 N
0.992057 -1.79701 4.91636 -0.713568 -0.268664 -0.647024 T < P
0.989348 -0.951828 4.83447 -0.742374 0.0368081 -0.668974 U D _
0.971749 0.919495 4.65473 -0.694819 -0.169127 -0.699016 S > U
0.98499 0.473271 4.68976 -0.567029 0.241404 -0.787529 ñ Ñ ë
0.999321 -0.890282 4.81623 -0.874485 0.0401464 -0.483389 \ G c
0.973845 1.0552 4.62352 -0.765261 0.0400893 -0.642471 _ G a
0.988059 0.297296 4.69597 -0.740449 -0.109868 -0.663072 ^ F ^
1.00653 -1.41826 4.85747 -0.673331 0.118937 -0.729711 _ A W
0.986909 0.451766 4.67835 -0.601993 0.17686 -0.778669 É v à
1.01495 -1.80152 4.89377 -0.713736 -0.268097 -0.647074 Z = Q
1.01673 -0.818924 4.80186 -0.884592 -0.187304 -0.4271 Y A Y
0.998279 -0.230664 4.73903 -0.687613 0.142794 -0.711898 ç { ã
0.992213 0.811108 4.63792 -0.700839 0.34459 -0.624565 ë ~ à
0.979389 1.04812 4.60997 -0.715088 -0.0709244 -0.695427 í  é
1.01904 -0.836729 4.79021 -0.907079 0.103924 -0.407931 Ä q Ü
0.98856 1.09799 4.60135 -0.757899 0.0114633 -0.652271 _ H ^
1.02275 -0.847143 4.77955 -0.799167 0.366174 -0.476707 [ D d
1.02239 -0.846998 4.77948 -0.800382 0.362657 -0.477355 [ D d
1.0116 1.17856 4.56872 -0.72293 -0.0322234 -0.690169 S @ ]
1.0255 0.823503 4.60232 -0.683867 -0.0255381 -0.729159 _ M e
1.04671 -1.78976 4.84577 -0.720729 -0.0872436 -0.687705 î } ç
1.0567 -1.80742 4.84869 -0.71613 -0.0848363 -0.692792 Y < I
1.03713 -0.416471 4.71317 -0.737032 -0.115133 -0.66598 ä p Ä
1.04133 -0.584135 4.72489 -0.799329 -0.0502348 -0.59879 â w á
1.04751 0.172095 4.64424 -0.678254 -0.0630745 -0.732116 ì É ö
1.07507 -0.245762 4.67647 -0.738654 -0.101732 -0.666364 5 % 4
1.0653 -0.0446111 4.65251 -0.625912 0.151601 -0.765017 X L b
1.05129 1.17565 4.53259 -0.694545 -0.0957407 -0.71305 \ F b
1.05605 0.427713 4.59674 -0.783505 0.198927 -0.588684 á x ê
1.07697 -0.585162 4.69323 -0.721898 -0.232221 -0.651871 ã y ä
1.08247 -0.20412 4.6559 -0.769344 -0.135191 -0.624366 ä w é
1.0799 -0.0647207 4.63784 -0.675859 0.0548468 -0.734988 ô Ü ì
1.0799 -0.0647207 4.63784 -0.675859 0.0548468 -0.734988 ô Ü ì
1.08997 -0.116849 4.63994 -0.700769 -0.0918079 -0.707456 ã } ì
1.08853 -0.166897 4.64319 -0.661309 -0.119627 -0.740513 ï Ç î
1.08594 0.463197 4.58188 -0.790686 0.0150184 -0.612038 ã z é
1.09302 -1.44212 4.75799 -0.877127 0.0646824 -0.475883 ç { å
1.10726 -1.42224 4.75177 -0.831407 0.115096 -0.543613 O A H
1.08982 0.125924 4.60326 -0.363666 0.204121 -0.90889 é } í
1.09794 -0.449539 4.65726 -0.692675 -0.0935577 -0.715156 I 6 K
1.09147 0.53596 4.56368 -0.856756 -0.0507158 -0.513223 ^ M i
1.08742 0.536841 4.56306 -0.852804 -0.0208639 -0.521814 ^ M i
1.10127 -1.11936 4.71577 -0.352657 -0.0520881 -0.934302 j S l
1.10315 -1.04923 4.70946 -0.769031 0.0518434 -0.637105 \ G _
1.11505 -0.920163 4.69925 -0.728324 -0.066991 -0.681951 ô Ñ õ
1.11791 -1.27736 4.73128 -0.869407 0.0379045 -0.49264 m S a
1.10874 -1.01116 4.70309 -0.75294 0.0354459 -0.657134 ^ C N
1.10699 -1.01105 4.70302 -0.751061 0.0400915 -0.659014 ^ C N
1.11563 0.205425 4.58957 -0.769806 -0.0425024 -0.636861 ó á ö
1.10655 -0.118558 4.61763 -0.709945 -0.0951168 -0.697804 X C Y
1.11599 -0.0307631 4.60295 -0.716843 0.0935101 -0.690936 ï  ã
1.09023 0.758759 4.52417 -0.729599 0.0893308 -0.678015 í Ä ë
1.11961 0.154695 4.58321 -0.899247 -0.0911221 -0.427846 < . 9
1.11887 0.225253 4.5685 -0.887804 -0.263053 -0.377634 X C Y
1.12147 0.195599 4.5713 -0.813558 -0.0145051 -0.581303 O < O
1.14389 -1.79601 4.75735 -0.718208 -0.0777307 -0.691473 _ B X
1.15593 -1.71987 4.73955 -0.721553 -0.0974123 -0.685472 i K ^
1.13801 0.280752 4.54732 -0.82312 -0.0970221 -0.559518 H - @
1.16459 -1.64528 4.72623 -0.714879 -0.153701 -0.682147 i K R
1.16453 -1.81898 4.73889 -0.728195 -0.0509301 -0.683475 b F [
1.13449 0.624932 4.49964 -0.567647 0.580576 -0.583702 ã Ä ñ
1.14099 0.404546 4.51547 -0.670154 0.111359 -0.733821 ó à ¶
1.14773 1.14225 4.4423 -0.73636 -0.088558 -0.670769 Ñ q s
1.16609 -0.0505174 4.55238 -0.734082 -0.0182755 -0.678815 P : J
1.15663 0.884993 4.46252 -0.790702 -0.12829 -0.598609 Y J f
1.18035 -1.82062 4.7144 -0.745996 -0.0799424 -0.661135 i J `
1.15541 0.628946 4.47758 -0.693211 0.328957 -0.641284 S > R
1.16736 0.789128 4.46487 -0.69107 -0.0192543 -0.722531 ã z á
1.15874 1.15596 4.42464 -0.781488 -0.221217 -0.583386 î Ä è
1.18658 0.774584 4.45165 -0.72622 -0.00947263 -0.687397 M > T
1.20937 0.244037 4.46535 -0.702647 -0.0832986 -0.706646 o W t
1.21641 1.10076 4.36985 -0.811238 -0.0594113 -0.58169 Q > Y
1.25175 -1.23081 4.58439 -0.724799 -0.0309348 -0.688266 f D W
1.22259 0.623315 4.40613 -0.749931 0.0615709 -0.658644 > 0 C
1.22259 0.623315 4.40613 -0.749931 0.0615709 -0.658644 > 0 C
1.27541 -1.27073 4.56197 -0.725291 -0.0211615 -0.688117 ô Ö ú
1.23257 1.18592 4.32713 -0.807304 -0.187075 -0.5597 f M V
1.13987 1.39631 4.28799 -0.754096 -0.0633602 -0.653701   
1.25824 1.11822 4.32841 -0.726265 -0.162918 -0.66783 9 ) A
1.25814 0.096402 4.41957 -0.706183 -0.148344 -0.692315 é z é
1.16614 1.34755 4.26044 -0.742015 -0.0243591 -0.66994 ˇ ¡ Ø
1.24527 1.33283 4.17703 -0.834264 -0.0290022 -0.550602 ˇ √ ¥
1.24527 1.33283 4.17703 -0.834264 -0.0290022 -0.550602 ˇ √ ¥
1.24527 1.33283 4.17703 -0.834264 -0.0290022 -0.550602 ˇ √ ¥
-0.192322 1.37558 3.9733 0.13694 0.376175 -0.916373 ¢ î É
1.28366 1.39457 4.12296 -0.781803 -0.0534988 -0.621226 c ^ _
-2.19814 0.0298241 7.97153 -0.682555 -0.170779 -0.710601 i N _
-2.17825 1.61174 7.77335 -0.58 -0.371398 -0.725027 Ç y É
-2.18859 -0.152903 7.97929 -0.7407 -0.066988 -0.668488 b G ^
-2.18039 0.11342 7.94749 -0.732592 0.0133986 -0.680536 é t Å
-2.1799 0.020842 7.95736 -0.703931 -0.171722 -0.689197 [ G ]
-2.17197 0.624508 7.88291 -0.737346 -0.0304817 -0.674828 U < B
-2.15766 0.818542 7.84735 -0.741303 -0.146187 -0.655057 é z Ü
-2.14475 1.08636 7.80713 -0.740737 -0.0698637 -0.668153 V E M
-2.13218 1.47991 7.7592 -0.67473 -0.140706 -0.724528 A 3 >
-2.13921 0.00128987 7.91689 -0.704676 -0.10094 -0.702312 b J \
-2.11662 0.701644 7.83873 -0.755533 -0.303287 -0.580678 A 9 ?
-2.12154 0.896405 7.79231 -0.692937 -0.0960677 -0.714569 ™  {
-2.12497 -0.0640369 7.90998 -0.693398 -0.0303974 -0.719914 a I U
-2.1064 0.878851 7.78819 -0.696375 -0.0681952 -0.714431 7  
-2.10678 0.123268 7.88035 -0.715854 0.02188 -0.697907 C 0 A
-2.10032 0.838741 7.7794 -0.740908 -0.132887 -0.658328 0  
-2.10032 0.838741 7.7794 -0.740908 -0.132887 -0.658328 0  
-2.09912 0.269446 7.85651 -0.672994 -0.063304 -0.736934  d s
-2.07258 1.48848 7.70085 -0.688836 -0.133944 -0.712435 â t u
-2.07029 1.03132 7.73588 -0.492937 0.434519 -0.753795 x j o
-2.07029 1.03132 7.73588 -0.492937 0.434519 -0.753795 x j o
-2.08007 -0.0479006 7.86705 -0.707509 -0.157337 -0.688967 í s ~
-2.07319 0.161171 7.8457 -0.743813 -0.0559487 -0.666041 É j 
-2.07418 -0.0661782 7.86402 -0.703522 -0.127789 -0.69909 > - 9
-2.05624 1.30036 7.69105 -0.704695 0.147154 -0.694083 0 % .
-2.07366 -0.0167583 7.84942 -0.706281 -0.157234 -0.69025 é x ã
-2.06613 0.123173 7.83702 -0.711915 0.204699 -0.67177 + # ,
-2.05589 0.333543 7.80772 -0.661316 -0.287224 -0.692938 9 . 8
-2.06506 -0.0523059 7.84979 -0.688816 -0.142642 -0.710764 k K ^
-2.05038 0.545625 7.77687 -0.653455 -0.408219 -0.63746 z i ~
-2.04561 0.552296 7.77922 -0.662754 -0.353115 -0.660354 S 9 I
-2.05417 -0.0528323 7.839 -0.764222 -0.114208 -0.63476 h I _
-2.05644 -0.604254 7.89868 -0.710448 0.0859792 -0.698478 C 1 =
-2.04209 0.798523 7.72521 -0.681504 -0.156672 -0.714847 > ! 
-2.05282 -0.272056 7.85398 -0.777456 0.115107 -0.618314 U = F
-2.05282 -0.272056 7.85398 -0.777456 0.115107 -0.618314 U = F
-2.03989 0.425943 7.76607 -0.629358 -0.239411 -0.739317 Å v â
-2.0424 0.00432506 7.81778 -0.736772 -0.0345227 -0.67526 a M ^
-1.99645 0.194079 7.83853 -0.755935 -0.0573514 -0.65213 C 2 B
-2.03345 0.196858 7.79931 -0.724118 -0.0237378 -0.689268 C 2 B
-2.02494 0.940624 7.69157 -0.550777 -0.105963 -0.827899 ~ f q
-2.02335 0.353838 7.76043 -0.649153 -0.226534 -0.726143 é z á
-2.00616 1.29273 7.64836 -0.556517 0.505639 -0.659256 @ 1 5
-2.00739 0.919949 7.69089 -0.530897 -0.104934 -0.840915 s [ a
-2.02333 -0.403374 7.84362 -0.62659 0.160196 -0.762707 ã s Å
-2.00263 0.989621 7.67725 -0.70031 -0.0281493 -0.713284 M D N
-1.99868 0.983032 7.67035 -0.787751 0.171918 -0.591517 5 / ?
-1.98897 0.986327 7.66379 -0.719727 -0.0460912 -0.692726 G : S
-1.94221 0.822727 7.71893 -0.56231 -0.0599185 -0.824753 Å k q
-1.97794 0.817958 7.68159 -0.439358 -0.378765 -0.814556 Å k q
-1.97797 0.543683 7.71412 -0.704771 -0.161947 -0.690703 B / @
-1.99146 0.0455136 7.76448 -0.506578 -0.195928 -0.839637 Ñ l {
-1.96666 1.46455 7.59782 -0.709548 -0.140415 -0.690526 2 * 7
-1.954 1.58185 7.55639 -0.734708 -0.348324 -0.58213 7 / /
-1.97351 -0.633841 7.81833 -0.669762 0.0106834 -0.742499 | j {
-1.95482 0.561907 7.67591 -0.746036 -0.0486781 -0.664124 D < S
-1.94759 1.25297 7.58947 -0.658991 -0.0228011 -0.751806 q g |
-1.93777 1.12321 7.58993 0.141361 -0.979726 0.141962 u d t
-1.93688 0.55059 7.6652 -0.759256 -0.158613 -0.631168 à v Ñ
-1.94686 -0.109519 7.73871 -0.73025 -0.116328 -0.673204 å o Ü
-1.90567 0.192062 7.73846 -0.830682 -0.361597 -0.423339 å u É
-1.93139 0.537823 7.66643 -0.757997 -0.147306 -0.635407 ] C P
-1.94042 0.193665 7.70219 0.337994 0.778177 -0.529339 å u É
-1.92847 1.13394 7.58815 0.188086 -0.963585 0.190074 I 9 B
-1.93779 0.316646 7.68617 -0.819372 0.15238 -0.552639 8 , 8
-1.93126 0.355673 7.67372 -0.73288 -0.00664248 -0.680326 B - 4
-1.93126 0.355673 7.67372 -0.73288 -0.00664248 -0.680326 B - 4
-1.9419 -0.637482 7.79059 -0.679593 -0.0060374 -0.733564 H @ U
-1.94398 -0.665751 7.78953 -0.680933 -0.0108349 -0.732265 y g ~
-1.93819 -0.408164 7.75985 -0.735459 -0.0490753 -0.67579 ç u Ä
-1.93609 -0.285073 7.74288 -0.763802 -0.00848972 -0.645395 Ä i }
-1.90413 0.813399 7.60686 -0.770588 -0.0218229 -0.63696 K 7 M
-1.92356 -0.346094 7.73876 -0.809006 -0.0545599 -0.585263 ^ A K
-1.9093 0.534869 7.63428 -0.762874 0.0907171 -0.640151 5 - 7
-1.9093 0.534869 7.63428 -0.762874 0.0907171 -0.640151 5 - 7
-1.89641 0.678167 7.60931 -0.68552 -0.199718 -0.700125 y f o
-1.90147 0.847968 7.58107 -0.74958 -0.074826 -0.657671 ~ g y
-1.89932 0.707667 7.59832 -0.670356 -0.241076 -0.701787 x e m
-1.94707 1.67014 7.4214 -0.70158 -0.508072 -0.499649 ) $ !
-1.94707 1.67014 7.4214 -0.70158 -0.508072 -0.499649 ) $ !
-1.89174 0.78541 7.58922 -0.727981 -0.0986396 -0.678464 i W d
-1.88956 0.812574 7.58639 -0.710188 -0.0627163 -0.701213 ; * <
-1.88934 0.812619 7.58656 -0.709737 -0.0650291 -0.701459 ; * <
-1.90484 -0.275782 7.71251 -0.647613 0.00765278 -0.761931 9 * 3
-1.90484 -0.275782 7.71251 -0.647613 0.00765278 -0.761931 9 * 3
-1.89721 0.398316 7.63057 -0.775399 0.0224425 -0.631072 x b u
-1.88355 0.877716 7.58061 -0.710594 -0.101439 -0.696252 3 + :
-1.89134 0.53276 7.61592 -0.575741 0.562767 -0.59314 6 0 >
-1.87542 0.7914 7.58372 -0.685374 -0.0538318 -0.726199 4 $ 5
-1.87542 0.7914 7.58372 -0.685374 -0.0538318 -0.726199 4 $ 5
-1.87858 0.659355 7.58715 -0.723808 -0.0702923 -0.686412 4 * 6
-1.88059 0.525662 7.6026 -0.652503 -0.0222315 -0.75746 k f r
-1.88049 0.407098 7.61566 -0.726773 -0.132084 -0.674059 4 ( :
-1.87736 0.461654 7.60793 -0.741191 -0.0597688 -0.668628 N 7 M
-1.86855 0.743 7.57035 -0.730531 0.037266 -0.681862    
-1.86543 0.533003 7.59377 -0.682004 -0.0293424 -0.73076 8 / 6
-1.88433 -0.62107 7.72313 -0.829581 0.0124969 -0.558246 W @ M
-1.86695 0.311372 7.61659 -0.712431 -0.109839 -0.693092 H 7 H
-1.8701 -0.440935 7.69922 -0.732396 0.0342964 -0.680015 G - A
-1.8701 -0.440935 7.69922 -0.732396 0.0342964 -0.680015 G - A
-1.86193 0.448467 7.58274 -0.718604 -0.115108 -0.685827 N ? Z
-1.85052 0.662525 7.56071 -0.732411 -0.146323 -0.664954 w f r
-1.8426 1.05835 7.51066 -0.69068 -0.0122503 -0.723057 o d n
-1.85426 0.345461 7.59111 -0.719058 -0.0908001 -0.688993 Ü o |
-1.86761 -0.547178 7.6935 -0.78068 -0.0105062 -0.624842 V G b
-1.86803 -0.547316 7.69329 -0.779193 -0.0116811 -0.626675 V G b
-1.84772 0.117731 7.60495 -0.694935 -0.380403 -0.610213 ~ i }
-1.85432 -0.499464 7.67715 -0.731558 0.0184357 -0.68153 Y B ^
-1.83455 0.452905 7.56093 -0.745251 -0.116834 -0.656469 F = V
-1.84095 -0.121564 7.62812 -0.809689 0.117945 -0.574885  p à
-1.82069 1.0896 7.48318 -0.646533 0.0628184 -0.760295 j P `
-1.83294 -0.302539 7.63848 -0.71276 0.00844 -0.701357 y d {
-1.80611 1.08591 7.47168 -0.680622 0.0819086 -0.728042 5   )
-1.80994 -0.43231 7.644 -0.24501 -0.791404 -0.560044 ò ~ ä
-1.81325 0.106289 7.57151 -0.715778 -0.114488 -0.688879 Y D \
-1.81118 -0.279696 7.61454 -0.574774 0.115157 -0.810169 â z å
-1.78042 0.784664 7.47921 -0.65982 0.165347 -0.733006 / ' 0
-1.76138 1.25579 7.42517 -0.757689 -0.0126103 -0.652494 $  $
-1.76961 0.28336 7.53964 -0.560438 -0.0824475 -0.824083 $  .
-1.77604 0.158165 7.54661 -0.793074 0.0903266 -0.60239 ? 3 E
-1.7758 0.158149 7.54679 -0.793028 0.089799 -0.60253 ? 3 E
-1.78012 -0.326675 7.6009 -0.738474 0.11259 -0.664815 C 4 B
-1.78671 -0.534888 7.61401 -0.668102 0.199183 -0.716914 U D e
-1.78785 -0.534423 7.61314 -0.66831 0.195631 -0.717698 U D e
-1.75999 0.978543 7.42938 -0.577995 0.328196 -0.747134 / % 1
-1.7536 1.35051 7.37752 -0.815509 -0.0867967 -0.572199 / ) <
-1.71239 0.642175 7.4986 -0.746773 -0.047702 -0.663366 A 5 J
-1.74806 0.6396 7.46718 -0.769297 0.0139648 -0.638738 A 5 K
-1.754 -0.31698 7.57031 -0.818284 0.291654 -0.495327 v d Ä
-1.77717 1.61277 7.29328 -0.676255 -0.532027 -0.509536 A 0 8
-1.73799 0.75895 7.42964 -0.777045 -0.0121848 -0.629327 ` S h
-1.74174 -0.65597 7.59216 -0.747216 0.00747407 -0.664539 M 6 S
-1.72533 0.878654 7.40881 -0.710203 -0.160407 -0.685479 $   -
-1.73391 -0.112171 7.5222 -0.597136 -0.344056 -0.724606 / ' 3
-1.73257 0.125533 7.49083 -0.701946 -0.108967 -0.703845 E 6 M
-1.73099 0.125029 7.49202 -0.701788 -0.105643 -0.704509 E 6 M
-1.71979 0.752579 7.4121 -0.697663 0.0403116 -0.715291 , " )
-1.70275 0.970374 7.39148 -0.572157 0.39846 -0.716844 $   
-1.72166 -0.293189 7.53532 -0.67681 0.0363052 -0.735262 ^ H e
-1.72124 -0.771369 7.57356 -0.68652 -0.150323 -0.711402 Ö p à
-1.70904 -0.307546 7.52212 -0.599668 0.210469 -0.772076 = 1 D
-1.70089 -0.466806 7.53041 -0.714505 -0.123113 -0.688713 H 8 R
-1.69135 0.083956 7.46294 -0.750951 -0.110634 -0.651025  l Ä
-1.68191 0.947343 7.35625 -0.760734 -0.00484639 -0.649045 c V p
-1.6906 -0.666981 7.54178 -0.721081 0.0517332 -0.690917 P < X
-1.67784 0.84601 7.35713 -0.729007 -0.148508 -0.668202 > 5 ?
-1.69137 -0.862528 7.55787 -0.690001 -0.0792031 -0.719462 S < U
-1.68853 -0.709269 7.53828 -0.628099 0.0181333 -0.777922 W E g
-1.66369 1.11215 7.32682 -0.752491 -0.13164 -0.645313 h R ^
-1.6829 -0.0385792 7.45521 -0.818452 -0.0112959 -0.574463 L B a
-1.67956 -0.795024 7.54388 -0.587073 -0.136948 -0.797866 G : S
-1.65881 0.150586 7.41185 -0.627328 -0.0302146 -0.778169 G 7 O
-1.65903 0.433225 7.37322 -0.732912 -0.117435 -0.670111 h Y t
-1.65365 -0.696459 7.50891 -0.605959 -0.00787875 -0.795457 R ? L
-1.61129 -0.79542 7.53529 -0.769679 -0.0824491 -0.633084 | j Å
-1.64531 -0.783235 7.50428 -0.669478 -0.644088 -0.370067  k Ç
-1.61304 0.982645 7.29155 -0.804365 -0.0390195 -0.592853 t ^ c
-1.60946 -0.514463 7.44258 -0.799419 -0.0331409 -0.599859 F 7 B
-1.602 0.0378315 7.37581 -0.698702 0.0530088 -0.713446 H = X
-1.60345 -0.660803 7.45856 -0.736347 -0.108333 -0.667875 ( # #
-1.59673 0.17762 7.34948 -0.661093 -0.0840201 -0.745585 à v â
-1.5847 -0.883771 7.47017 -0.667239 -0.142863 -0.731015 0 + 2
-1.58539 -0.47573 7.40759 -0.631553 -0.44051 -0.638037 Ç o y
-1.57962 -0.311005 7.38819 -0.728373 0.176135 -0.662155 ? 8 S
-1.57593 0.0278502 7.34409 -0.728395 -0.0306348 -0.684473 É s ì
-1.55862 0.617149 7.27893 -0.691501 -0.0576216 -0.720073 %  +
-1.55696 0.0495857 7.33213 -0.747575 -0.0403163 -0.662952 ; 1 F
-1.55911 -0.672978 7.41073 -0.708322 -0.259687 -0.656386 x p Ñ
-1.5532 -0.78714 7.41842 -0.693613 -0.1484 -0.704896 ã t ä
-1.54492 0.0372825 7.31169 -0.736941 -0.0584454 -0.673426 Z F a
-1.54072 0.0158903 7.31138 -0.715811 -0.100463 -0.69103 ^ K h
-1.54072 0.0158903 7.31138 -0.715811 -0.100463 -0.69103 ^ K h
-1.53429 0.0387432 7.30159 -0.737118 -0.0580841 -0.673264 ^ I \
-1.53209 0.0296894 7.29703 -0.704548 -0.087249 -0.704272 ì Ö ä
-1.5341 -0.319518 7.33812 -0.638178 0.209692 -0.740782 H : Z
-1.52432 -0.649898 7.36706 -0.467654 -0.309577 -0.827926 u f É
-1.89462 1.49456 6.81107 -0.51113 -0.173331 -0.841845 y d ê
-1.50757 -0.0172475 7.2864 -0.816623 -0.207416 -0.538615 M 4 D
-1.50543 -0.0338903 7.28713 -0.811636 -0.19632 -0.550186 Q 7 H
-1.50889 -0.905518 7.37907 -0.722781 -0.0925618 -0.684851 r h ~
-1.47895 -0.676483 7.33684 -0.796316 0.00218338 -0.604877 à r y
-1.48756 -0.550257 7.31388 -0.786409 -0.0136305 -0.617556 U A c
-1.47613 -0.328127 7.294 -0.699845 -0.135832 -0.70126 9 , >
-1.4741 -0.15036 7.26345 -0.625258 -0.380459 -0.681398 | i |
-1.84126 0.938115 6.84301 -0.688701 -0.0924926 -0.719121   %
-1.46905 -0.678779 7.31531 -0.789862 0.017415 -0.613037 Ñ q á
-1.83473 0.828992 6.84524 -0.745445 -0.0952708 -0.659723 ` R }
-1.82699 0.879123 6.83541 -0.715865 -0.0877323 -0.692705  n u
-1.82661 0.954645 6.8246 -0.69896 -0.0708528 -0.711642   +
-1.81004 0.960174 6.80625 -0.696524 -0.0613737 -0.714904 W M 
-1.42531 -0.895303 7.30181 -0.320175 -0.115573 -0.940282 6 * ?
-1.80236 0.852514 6.81106 -0.731472 -0.102326 -0.674149 U K z
-1.63175 0.609434 6.93082 -0.671608 -0.449729 -0.588801 f Z {
-1.37112 -0.500253 7.19601 -0.429703 -0.78613 -0.444246 L < L
-1.3678 -0.178524 7.15425 -0.726454 -0.066387 -0.684001 Ñ u ê
-1.7512 0.797536 6.76775 -0.71569 -0.0830446 -0.693463 Å o ã
-1.31893 -0.523135 7.2101 -0.621071 -0.367039 -0.692498 t c y
-1.35558 -0.514055 7.18477 -0.400797 -0.803969 -0.439313 t c y
-1.35971 -0.89285 7.22385 -0.753904 0.0974516 -0.649716 å { ñ
-1.73472 0.959202 6.7358 -0.681973 -0.0280658 -0.730838 5 - G
-1.3235 -0.49891 7.15898 -0.652174 -0.34911 -0.672897 M 9 K
-1.7208 1.12607 6.67007 -0.717483 -0.172497 -0.67488   $
-1.30032 -0.165343 7.09002 -0.738354 -0.134327 -0.660901 ç v ~
-1.28133 -0.829896 7.1371 -0.733415 -0.0472565 -0.678137 I > X
-1.2775 -0.921173 7.14864 -0.724652 -0.125402 -0.677609 K ? S
-1.6798 0.997916 6.59177 -0.593024 -0.527132 -0.60865 Z S Ö
-1.63042 0.868386 6.63933 -0.725206 -0.11722 -0.67848 = 1 Q
-1.36932 0.564856 6.83481 -0.724646 0.0111989 -0.689031 E A y
-1.62605 0.887452 6.63172 -0.692227 -0.0678943 -0.718479 f X à
-1.22502 -0.847123 7.07988 -0.711576 -0.106126 -0.694548 U I g
-1.20344 -1.09761 7.08012 -0.75286 -0.079088 -0.653412 T ? a
-1.59458 0.928482 6.59365 -0.707414 -0.00281168 -0.706794 + % >
-1.18184 -0.93239 7.05062 -0.700658 -0.122546 -0.702895 z h É
-1.24326 -0.58722 6.92463 0.989761 -0.0998705 -0.101979   >
-1.28982 0.364335 6.77905 -0.0368783 0.863875 -0.502355 K E 
-1.11085 -1.13199 6.99575 -0.749642 -0.0593192 -0.65918 A ) 5
-1.10934 -1.13248 6.99651 -0.753936 -0.0528402 -0.654819 A ) 5
-1.24011 0.281185 6.72699 0.972653 0.227412 -0.0472249 *  <
-1.20951 0.472005 6.69393 -0.673682 -0.0730318 -0.735404 !  6
-1.19483 0.492766 6.67621 -0.618564 0.189596 -0.762517   6
-1.30405 -0.588609 6.71079 -0.903262 0.0371918 -0.427475 ,   <
-1.44838 0.819612 6.4578 -0.719918 0.082617 -0.689124 f Z å
-1.44942 0.819429 6.45737 -0.720894 0.0461139 -0.69151 f Z å
-1.14632 -0.218204 6.68591 -0.383633 0.471342 -0.794142 %  H
-2.09629 0.957376 6.01602 0.975649 -0.0585431 -0.21138 ; 2 _
-2.06111 0.963001 6.01318 0.975602 -0.0839071 -0.202881 4 - Z
-2.09502 0.956555 5.99668 0.936519 -0.214668 -0.277218 7 / [
-1.1021 -0.24554 6.63479 -0.326523 0.0666844 -0.942834 !  /
-1.1021 -0.24554 6.63479 -0.326523 0.0666844 -0.942834 !  /
-1.34913 0.889377 6.3553 -0.720341 -0.0573612 -0.691244 O A b
-1.21685 -0.872121 6.62486 -0.940451 0.272915 -0.202657 b K u
-1.20679 -0.842375 6.62046 -0.935255 0.291814 -0.200358 \ G t
-1.20679 -0.842375 6.62046 -0.935255 0.291814 -0.200358 \ G t
-2.05098 1.40394 5.84613 0.998013 0.0584914 -0.0234371 : . A
-2.05191 1.39923 5.81232 0.998206 0.0561651 -0.0207592 0 + B
-1.23999 0.771351 6.25545 -0.597695 -0.504295 -0.623255 @ . X
-1.05704 0.291252 6.37336 -0.695412 -0.0429652 -0.717326 "  3
-1.044 -0.0379664 6.38813 -0.826435 0.129738 -0.54788 L B w
-1.13468 0.443106 6.26736 -0.745538 -0.0187285 -0.666199 "  8
-1.02143 0.118483 6.35565 -0.681695 -0.210143 -0.700808 !  3
-1.01383 0.539682 6.30687 -0.620262 0.206114 -0.75683 #  <
-2.0376 1.1883 5.76882 0.993232 0.0827806 0.0814768 %   G
-1.17315 0.893806 6.173 0.748674 0.633536 -0.195241 R @ m
-0.996457 0.451839 6.29489 -0.729161 -0.0578417 -0.681893 ` U à
-0.996457 0.451839 6.29489 -0.729161 -0.0578417 -0.681893 ` U à
-2.05253 1.3857 5.71182 0.988723 0.133366 -0.0681226 8 . <
-0.970919 0.533814 6.26609 -0.759667 0.43559 -0.482874 %  ?
-0.935646 0.226644 6.25746 -0.697464 -0.0459612 -0.715144 6 + M
-2.03835 1.23476 5.63818 0.97679 0.19149 0.0959821 % ! 6
0.388786 1.02083 6.65149 0.16611 0.983203 -0.0756223 = 0 Q
-1.06749 0.803216 6.07567 -0.75066 -0.0548367 -0.65841 O < g
-1.05923 0.784553 6.07016 -0.727114 -0.0714956 -0.682784 ? . Y
-1.05782 0.765468 6.06901 -0.726943 -0.0746927 -0.682624 q ` ê
-2.03745 1.24998 5.60717 0.997742 0.0671472 -0.00176439 X L x
-0.851343 -0.428411 6.24131 -0.558256 0.190539 -0.807493 V H }
-1.10275 0.97572 5.98194 -0.654464 0.373329 -0.657497 E ; T
-0.831761 -0.00134832 6.15235 -0.763057 -0.109383 -0.637008 p ë †
-0.822457 -0.0317978 6.1519 -0.731158 -0.135441 -0.668628 å © ∏
-2.09855 1.46265 5.49119 0.98435 -0.0681106 0.162531 0 - M
-0.76499 -0.163949 6.14981 -0.619387 0.114647 -0.776669 1 + E
-0.78563 -0.602188 6.17915 -0.772235 -0.108664 -0.625975 / ' E
-0.853773 -0.0168827 6.08424 -0.944363 -0.273404 -0.182834 p Ä ó
-0.852024 0.421709 6.01126 -0.576227 0.550832 -0.603777 O i y
-2.05436 1.35967 5.47176 0.80518 0.405983 -0.432276 D < b
-2.05436 1.35967 5.47176 0.80518 0.405983 -0.432276 D < b
-2.04891 1.34518 5.46412 0.810563 0.406684 -0.421421 ë x •
-2.08815 1.40445 5.43819 -0.719897 -0.641965 -0.263875 \ R |
-0.874386 0.2618 5.99586 0.852959 0.505043 -0.131882 N M ]
-0.834256 0.412437 5.99043 -0.494978 0.812581 -0.307746 ? P ]
-2.0863 1.36673 5.43707 0.849697 0.414488 -0.325906 ë z ©
-0.918895 0.316735 5.96363 -0.967937 -0.0481925 -0.246526 m { á
-0.901806 0.712282 5.9107 -0.687498 0.00769287 -0.726145 ` K s
-0.793576 0.4507 5.97307 -0.590771 0.599134 -0.540396 ! ! H
-0.889016 0.863245 5.88927 -0.863474 -0.379954 -0.331733 W A k
-0.721363 -0.269054 6.0709 -0.5155 0.267874 -0.813943   B
-2.06722 1.33215 5.42193 -0.548643 -0.745422 -0.378599 à s £
-0.658336 -0.752113 6.06488 -0.659802 0.307153 -0.685797 /  C
-0.612167 0.495502 5.86729 -0.337855 -0.195225 -0.920729 '  =
-0.603049 -0.401565 5.96767 -0.778162 -0.0651987 -0.62467 !  8
-0.76321 0.735886 5.78343 -0.705535 -0.0728066 -0.704925 | h ì
-0.663886 -0.869024 5.89976 -0.607221 -0.550344 -0.573065 L B q
0.135397 0.113336 6.01888 -0.733124 -0.14498 -0.664462 + ! ?
-0.662123 -0.888438 5.8928 -0.643302 -0.52493 -0.557324 &  4
-0.658874 -0.85648 5.88484 -0.718701 -0.338027 -0.607624 6 ( G
3.57786 -0.297244 7.0197 0.403563 0.641633 -0.65226 ) " O
-0.613853 -0.748964 5.86751 -0.669118 0.220433 -0.709712 m Z ç
-1.92048 0.876771 5.31956 -0.722029 0.16385 -0.672181 T @ v
-0.469691 0.22806 5.78062 -0.694626 -0.0671369 -0.716232 - # A
-1.89192 1.49885 5.21309 -0.607621 -0.630018 -0.483606 ∂ ü ï
-1.81041 1.26981 5.24535 -0.780299 -0.241902 -0.576729 N ? t
-0.601092 0.734954 5.60518 -0.69079 0.0777675 -0.718862 2 $ =
-1.81127 1.3656 5.1606 -0.589607 -0.609129 -0.530401 0 % ?
-0.196511 0.163809 5.67352 0.897729 0.440315 -0.0143153 "  3
-0.177153 -0.119178 5.6945 -0.797078 -0.149431 -0.585096 . # @
-0.177153 -0.119178 5.6945 -0.797078 -0.149431 -0.585096 . # @
-0.185353 0.120009 5.65592 -0.876217 -0.29235 -0.383111 2 ( E
-0.185353 0.120009 5.65592 -0.876217 -0.29235 -0.383111 2 ( E
4.72744 0.286807 6.77474 -0.165904 -0.986062 0.0125344 ` X à
4.72744 0.286807 6.77474 -0.165904 -0.986062 0.0125344 ` X à
-0.165897 -0.0224069 5.66498 -0.791962 -0.101584 -0.602061 n ^ é
-1.7385 1.36499 5.0965 -0.540657 -0.689732 -0.481622 < / F
-0.414091 0.686038 5.42819 -0.729679 -0.125845 -0.67211 9 / ?
-1.62178 1.08896 5.06876 -0.734911 -0.0725693 -0.67427 8 ) \
-1.6425 1.3128 5.03978 -0.76633 -0.380928 -0.517333 ` O r
-0.13997 -0.684951 5.52624 -0.863942 0.162114 -0.476785 Å o à
0.0291245 0.0668153 5.42033 -0.906954 0.117413 -0.404535 J B u
-0.0586086 -0.596615 5.46458 -0.424824 0.629689 -0.650398 } h Å
-0.0586086 -0.596615 5.46458 -0.424824 0.629689 -0.650398 } h Å
-0.40857 0.906563 5.18439 -0.616309 -0.660903 -0.428217 / ( >
0.360271 -0.676856 5.45249 -0.697088 -0.0401229 -0.715862 _ I \
0.356873 -0.624159 5.4424 -0.680813 -0.0653387 -0.729537 p X g
0.374467 -0.752558 5.43643 -0.698681 -0.0148235 -0.71528 f N s
0.10861 0.360803 5.18212 -0.790569 -0.254852 -0.556823 Ñ r ù
0.497252 -0.361612 5.27639 -0.661474 -0.50614 -0.55342 ö Ñ ù
0.567692 -0.945844 5.27354 -0.746067 0.0931961 -0.659316 P D P
0.572641 -0.372038 5.20813 -0.693729 -0.0165802 -0.720045 > - B
0.574134 -0.95813 5.25466 -0.930897 0.0339966 -0.363697 _ O X
0.574134 -0.95813 5.25466 -0.930897 0.0339966 -0.363697 _ O X
0.609478 -0.963528 5.23785 -0.737792 -0.114384 -0.665266 E 8 G
0.612361 -0.579366 5.18506 -0.74728 -0.0125268 -0.664391 ; / ?
0.630891 -0.972329 5.20709 -0.777157 -0.0235323 -0.628867 T F ]
0.634905 -0.387034 5.14214 -0.7094 -0.212249 -0.672088 J ; W
0.650045 -1.25158 5.2217 -0.740366 -0.0653512 -0.66902 a G W
0.676127 -0.954234 5.16376 -0.651809 -0.223412 -0.724729 a O d
0.668308 -0.967469 5.15851 -0.645692 -0.0136818 -0.763476 î z ã
0.68143 -1.17245 5.17773 -0.707275 -0.209656 -0.675135 J 5 I
0.699499 -1.75063 5.22328 -0.712334 -0.0891186 -0.696159 õ ~ â
0.70444 -1.58317 5.20191 -0.705653 0.0383643 -0.707518 R 7 I
0.694583 -0.983257 5.13807 -0.690232 0.00862259 -0.723537 Q = Z
0.72097 -1.38812 5.16447 -0.656196 -0.080353 -0.7503 _ K c
0.73285 -0.439364 5.04942 -0.781014 0.0439585 -0.622965 â u å
-1.27653 1.21296 4.70434 -0.638665 -0.201714 -0.742575 R ; a
0.753374 -0.576027 5.04216 -0.756904 -0.128791 -0.64071 = 4 J
0.763164 -1.37058 5.10792 -0.604396 0.123328 -0.78708 é z é
0.769327 -1.18772 5.0882 -0.744748 0.00172939 -0.667344 O A S
0.776966 -1.46221 5.09977 -0.753582 -0.0541172 -0.655122 l S i
0.786754 -1.78419 5.13095 -0.715783 -0.0778187 -0.693973 î | Ä
0.781903 -1.40464 5.07976 -0.714352 -0.00738728 -0.699747 ã z ç
0.791952 0.337456 4.89326 -0.743524 -0.171809 -0.646261 ô Ö ú
0.817391 -1.319 5.04455 -0.738176 -0.105815 -0.666258 â | ì
0.821846 -1.77927 5.08554 -0.710652 -0.151931 -0.686943 T ; L
0.812165 0.369918 4.86624 -0.6986 -0.169423 -0.695164 U A ^
0.827553 -1.15081 5.01628 -0.782984 0.0459506 -0.620343 c H R
0.833064 -1.11382 5.01022 -0.49932 0.308263 -0.809724 F 2 B
0.836958 -1.31258 5.0271 -0.760276 -0.0551791 -0.647252 O > S
0.836958 -1.31258 5.0271 -0.760276 -0.0551791 -0.647252 O > S
0.837831 -1.39855 5.03129 -0.689564 -0.258181 -0.676642 F - 8
0.834871 -0.63246 4.95252 -0.751764 -0.0468267 -0.657768 Y A N
0.834703 -1.20391 5.00916 -0.783524 0.0438426 -0.619813 à u à
0.841651 -1.04025 4.98995 -0.953928 0.0261292 -0.298894 ` F W
0.848016 0.476326 4.80965 -0.691243 0.000314515 -0.722623 0 * :
0.867814 -1.40136 4.99609 -0.73568 -0.00369614 -0.677319 Q 7 D
0.870157 -1.40219 4.99621 -0.735969 -0.00343403 -0.677007 Q 7 D
0.892882 -0.000887176 4.83699 -0.714406 -0.24196 -0.656567 Ö r à
0.915986 -1.80128 5.00088 -0.700377 -0.0779282 -0.709506 ç w â
0.916124 -1.39013 4.95751 -0.836602 -0.0343335 -0.546735 î x à
0.921538 -1.7717 4.9822 -0.717806 -0.141658 -0.68168 ï { ä
0.938311 -1.79569 4.97153 -0.697205 -0.0791557 -0.712488 Z ? O
0.964737 -0.972913 4.86334 -0.646889 0.0985561 -0.756189 è ~ ô
0.954556 0.299364 4.71473 -0.725356 -0.0597595 -0.685775 ] E a
0.996214 -0.928618 4.82001 -0.800957 0.0127942 -0.598586 Q ? ]
0.996214 -0.928618 4.82001 -0.800957 0.0127942 -0.598586 Q ? ]
1.01297 -0.818339 4.80165 -0.859865 -0.173227 -0.480234 V C Z
1.00595 -0.980296 4.81297 -0.755983 0.0309841 -0.653857 ç t Ü
1.0223 -1.40589 4.84962 -0.694862 -0.16749 -0.699367 ô  ä
1.0293 0.443387 4.64791 -0.773059 0.0608294 -0.631411 Ç r â
1.04346 -1.81812 4.86367 -0.691983 -0.328921 -0.642628 ç } ì
1.03579 -0.829272 4.76056 -0.780975 0.325621 -0.532962 [ F a
1.03233 0.18945 4.65107 -0.707247 -0.106994 -0.698824 ] H f
1.09897 -1.41631 4.77989 -0.588237 0.300894 -0.750626 ì y á
1.09699 -0.603655 4.67928 -0.717 -0.180937 -0.673181 J 9 G
1.08305 0.777936 4.53557 -0.775131 -0.0905447 -0.625279 D 8 M
1.09446 -0.0519884 4.61465 -0.688049 0.0932559 -0.719647 \ L V
1.07941 0.418469 4.56125 -0.778884 0.250972 -0.574763 û é ¶
1.1112 0.296512 4.57152 -0.723127 -0.07674 -0.686439 õ Ñ †
1.13754 -1.21517 4.70912 -0.698284 0.208667 -0.684732 O 5 F
1.12745 0.266143 4.5602 -0.796876 -0.0569612 -0.601451 E 6 L
1.11446 0.295677 4.55356 -0.793629 0.0388987 -0.607157 å } ú
1.14767 -1.43359 4.71938 -0.721781 -0.0183488 -0.691878 S > U
1.16922 0.781792 4.43411 -0.693219 -0.0378371 -0.719733 ä | ó
1.23644 0.0989176 4.44963 -0.730609 -0.0119792 -0.682691 î  ì
1.26119 -1.03239 4.5568 -0.7046 -0.0667605 -0.706457 g J b
1.26119 -1.03239 4.5568 -0.7046 -0.0667605 -0.706457 g J b
1.28457 0.033109 4.4242 -0.694341 -0.114177 -0.710531 t ` w
1.31218 -0.0629768 4.41086 -0.729888 -0.0830427 -0.678504 w _ v
1.31065 -0.570496 4.43963 -0.722913 -0.0867594 -0.685471 Õ ∞ ¶
-1.15846 -0.349081 4.40034 -0.243956 -0.0184276 -0.969611 Î ¿ ¨
-1.15194 -0.343275 4.39839 -0.243436 -0.0180482 -0.969749 Ï ¡ ∞
2.66856 -1.17598 4.07757 -0.273843 -0.607891 -0.745304 h f É
-11.246 1.79849 4.87892 -0.0111491 -0.99977 -0.0183338 √ £ Ç
-11.2198 1.77623 4.87914 -0.0111781 -0.999726 -0.0205466 p D 0
6.26365 -0.340026 3.2962 -0.386122 -0.922003 -0.0286346 ™ v p
2.17593 -0.651701 3.74029 -0.319773 -0.103029 -0.941876 À ® õ
8.78333 -1.38136 2.91062 -0.866409 -0.0149588 -0.49911 Ï ¡ Æ
8.75537 -0.813887 2.85655 -0.843551 -0.111542 -0.525338 Ù « µ
8.95645 -2.59751 2.92491 -0.855864 -0.054943 -0.514274 ≥ ã ê
8.8465 -2.91622 2.96303 -0.862158 -0.102643 -0.496134 Æ á ~
8.84307 -3.08932 2.92896 -0.871801 -0.164341 -0.461471 ˘ – π
-2.18452 1.04984 7.85683 -0.713822 -0.0568711 -0.698014 V ? G
-2.1842 1.61193 7.78563 -0.5718 -0.370862 -0.731783 à y }
-2.1966 -0.392631 8.0181 -0.658627 0.0115184 -0.752382 z c h
-2.18403 0.851879 7.87307 -0.722083 -0.121925 -0.680977 G 6 ?
-2.19311 -0.460928 8.01941 -0.482286 -0.0716017 -0.873083  m z
-2.17018 0.574884 7.90372 -0.710769 -0.0573281 -0.701085 L A C
-2.18346 -0.409436 8.01343 -0.670232 0.189313 -0.7176 (  
-2.17334 0.561766 7.90121 -0.714767 -0.0625603 -0.696559 ~ h t
-2.18232 -0.00414963 7.9632 -0.695148 -0.163119 -0.700115 ` F R
-2.18449 -0.452491 8.01117 -0.554764 -0.104879 -0.825371 9 ! )
-2.18449 -0.452491 8.01117 -0.554764 -0.104879 -0.825371 9 ! )
-2.17094 1.15908 7.82406 -0.736017 -0.0848549 -0.671624 @ 3 ;
-2.16544 1.30925 7.79625 -0.712712 -0.0615449 -0.698752 ; . 6
-2.15705 1.33256 7.79514 -0.717065 -0.0576724 -0.694617 w f q
-2.15348 0.696488 7.8723 -0.778384 -0.0277917 -0.627173 F 8 E
-2.17184 -0.256567 7.97156 -0.706594 -0.0588948 -0.705164 Z A M
-2.15658 0.578461 7.87808 -0.730895 -0.077248 -0.678104 u d t
-2.16759 -0.111525 7.95195 -0.74132 -0.00598276 -0.671125 R = P
-2.1667 -0.316978 7.97237 -0.719464 -0.0667214 -0.691317 V < I
-2.13931 0.719212 7.8516 -0.757177 -0.289282 -0.585662 Ü j p
-2.14072 0.170705 7.89826 -0.657102 -0.0680483 -0.750724 Ç g w
-2.13191 0.347536 7.88011 -0.716715 -0.132433 -0.684676 C . <
-2.13191 0.347536 7.88011 -0.716715 -0.132433 -0.684676 C . <
-2.1205 0.795237 7.81355 -0.626274 -0.134295 -0.76795 s J W
-2.12303 0.862794 7.80084 -0.768285 -0.131485 -0.626459 k A S
-2.12067 -0.140519 7.90779 -0.71558 -0.0448565 -0.697089 Ñ h y
-2.10724 0.123311 7.8798 -0.71589 0.0232971 -0.697824 6 ' 5
-2.11744 -0.397774 7.93326 -0.722919 -0.113906 -0.681479 x a f
-2.09357 0.693783 7.80825 -0.742331 -0.201823 -0.638914 7 ' 4
-2.09958 0.218821 7.85906 -0.708304 -0.0799791 -0.701362 O 4 @
-2.08741 -0.0421333 7.86868 -0.711399 -0.157524 -0.684907 à l w
-2.08179 1.01691 7.73979 -0.272122 0.722717 -0.635318 á p z
-2.08673 -0.614942 7.92684 -0.705563 0.172024 -0.687451 j \ m
-2.08611 -0.610273 7.92536 -0.702786 0.176228 -0.689228 s j v
-2.07956 -0.0274459 7.85965 -0.703297 -0.166395 -0.691149 d J X
-2.07088 1.6012 7.67096 -0.437375 -0.819812 -0.36961 Ü w 
-2.06407 0.153295 7.83798 -0.914451 0.0804391 -0.396623 $  
-2.06237 1.59369 7.66673 -0.43919 -0.821454 -0.363765 ? 1 4
-2.07317 -0.60274 7.91836 -0.694991 0.201898 -0.69009 - $ +
-2.06659 -0.020022 7.84256 -0.69702 -0.143348 -0.702577 ] B S
-2.06659 -0.020022 7.84256 -0.69702 -0.143348 -0.702577 ] B S
-2.06221 -0.405706 7.87608 -0.326368 -0.348871 -0.878506 Ñ f t
-2.04557 0.703409 7.75107 -0.691249 -0.223949 -0.687039 v _ m
-2.05526 -0.294479 7.85878 -0.768344 0.0487227 -0.63818 9 ( +
-2.0529 -0.361432 7.86487 -0.495175 -0.387917 -0.777382 I 3 >
-2.04172 0.00414487 7.81795 -0.73597 -0.0374333 -0.675979 Y D V
-2.03548 1.29273 7.66731 -0.681115 0.265326 -0.68241 M < H
-2.03458 -0.610743 7.87907 -0.718373 0.0992087 -0.688548 D 4 =
-2.02899 1.28154 7.65896 -0.688506 0.201988 -0.696534 ~ g t
-2.0321 0.913798 7.6985 -0.537483 -0.088445 -0.838624 '  
-2.02803 0.793687 7.70989 -0.569951 -0.170487 -0.803797 ^ : 9
-2.01778 0.705561 7.72491 -0.643375 -0.159804 -0.748686 m \ h
-2.01838 0.730609 7.71688 -0.621557 -0.226276 -0.749977 o ^ h
-2.01572 -0.421032 7.83638 -0.521184 0.0798443 -0.849701 0 % '
-2.01821 -0.23401 7.81235 -0.77352 0.0219515 -0.633391 Ä f z
-2.00647 1.28842 7.63345 -0.631713 -0.00991215 -0.775139 7 , 6
-2.00915 0.00433383 7.78039 -0.617482 -0.169583 -0.768087 Z F Z
-2.00729 0.029096 7.77475 -0.627215 -0.136601 -0.766774 S @ S
-1.99422 -0.413648 7.82579 -0.606308 0.0758254 -0.791607 Ä f t
-1.97612 0.810823 7.67904 -0.289717 -0.884324 -0.366109 3 % 0
-1.97958 1.13504 7.63547 -0.689833 0.0932786 -0.717934 : * 1
-1.97471 1.12865 7.62657 -0.693848 0.0743753 -0.716271 i Z b
-1.96868 1.21152 7.61294 -0.708771 -0.0560177 -0.70321 z c o
-2.03766 1.73268 7.50872 -0.680488 -0.443403 -0.583378   
-1.9735 0.0792478 7.73875 -0.75668 0.0966562 -0.646601 q ] p
-1.96016 -0.61826 7.81206 -0.670286 -0.0110907 -0.74202 N 7 E
-1.93556 1.46847 7.56993 -0.706157 -0.139543 -0.694168 2 * .
-1.94672 1.14803 7.60073 -0.16035 0.9625 -0.218818 x ` j
-1.90962 1.13839 7.62153 -0.668889 0.112068 -0.734866 5 * 3
-1.94177 1.1333 7.60216 -0.16726 0.962066 -0.215531 6 * 1
-1.94591 -0.398538 7.77666 -0.699492 -0.132522 -0.702245  i x
-1.93765 0.521508 7.67121 -0.858127 -0.0384459 -0.511996  j y
-1.94677 0.669576 7.64798 -0.670972 -0.217697 -0.708805 ( # -
-1.93746 0.369402 7.67811 -0.691759 -0.030438 -0.721487 l \ b
-1.93502 0.474177 7.66321 -0.829666 0.0168785 -0.558004 E 5 A
-1.9327 0.331272 7.67872 -0.900366 0.00313056 -0.435122 ? . :
-1.93664 -0.434071 7.76317 -0.662473 0.0143498 -0.748948 0 ( /
-1.91906 0.823404 7.62466 -0.689976 -0.385406 -0.612695 ~ j o
-1.92891 0.320145 7.6739 -0.743111 -0.082897 -0.664014 o [ n
-1.93214 0.07659 7.69881 -0.798963 0.126806 -0.587859 o ` t
-1.92426 1.00286 7.59216 -0.638978 0.276532 -0.717801 / ( 2
-1.91864 1.13041 7.57643 -0.0915961 0.969266 -0.22833 / " $
-1.92448 -0.0798859 7.70336 -0.722812 -0.0465505 -0.689475 Ö q Ç
-1.92209 -0.388771 7.74024 -0.707307 -0.107205 -0.698731 N : B
-1.90884 0.699872 7.61134 -0.720579 -0.307005 -0.621702 I 5 4
-1.89896 0.998929 7.57485 -0.684096 -0.106279 -0.721607 / # +
-1.89896 0.998929 7.57485 -0.684096 -0.106279 -0.721607 / # +
-1.8903 0.794178 7.59086 -0.722716 -0.028056 -0.690576 2 & 2
-1.8921 0.532721 7.61579 -0.577985 0.557715 -0.595724 - ( 8
-1.90221 -0.288446 7.70386 -0.716854 0.0618587 -0.694474 Ä f t
-1.88705 0.312823 7.64189 -0.688728 -0.0848682 -0.720036 7 * 8
-1.89637 0.0931637 7.66093 -0.612955 0.0580334 -0.787984 . * 2
-1.88485 0.6631 7.5992 -0.682192 -0.125565 -0.720311 . & 0
-1.87145 1.12036 7.52926 -0.666904 0.00786398 -0.745102 1 $ 0
-1.88325 -0.571304 7.71573 -0.81329 -0.05024 -0.579685 @ / 7
-1.87012 0.184521 7.62816 -0.592312 -0.142558 -0.792997 Ñ q Ä
-1.86742 -0.446477 7.69776 -0.732603 0.0371143 -0.679644 r ] p
-1.87723 -0.540036 7.70223 -0.780623 -0.0109648 -0.624906 m ` x
-1.85688 0.812998 7.55316 -0.719256 0.0784303 -0.690304 É m r
-1.85471 1.01101 7.52673 -0.733845 -0.0934329 -0.67286 0 # -
-1.80921 -0.113679 7.67958 -0.801487 0.165677 -0.574604 ; ) 7
-1.8553 -0.105691 7.65436 -0.485764 -0.304051 -0.819504 ; ) 7
-1.85056 0.800914 7.54875 -0.721789 0.0356802 -0.691193 < . ;
-1.85065 0.310565 7.60471 -0.715548 -0.0860359 -0.693245 ? 1 >
-1.83415 1.29258 7.49795 -0.687908 0.11219 -0.717074 ( % (
-1.84968 0.790747 7.54738 -0.722189 0.0282482 -0.691119 y g t
-1.85422 -0.117678 7.64613 -0.615662 -0.0586144 -0.785828 Ä d w
-1.84989 0.672767 7.55616 -0.693587 -0.162897 -0.701713 O 9 I
-1.84705 0.659074 7.55852 -0.690094 -0.086801 -0.718496 s c i
-1.8384 1.39842 7.4729 -0.712451 -0.12078 -0.691249 , $ /
-1.85404 -0.442185 7.67619 -0.559778 -0.524433 -0.641575 z g z
-1.83225 1.26237 7.4864 -0.67259 0.17161 -0.719842 ) $ 4
-1.83769 -0.108336 7.63132 -0.808381 0.0771587 -0.583581 ? . 9
-1.83816 -0.108135 7.63109 -0.808537 0.0845034 -0.582346 ? . 9
-1.82811 0.0673951 7.60056 -0.679856 -0.415028 -0.604605 e Y f
-1.83304 -0.434947 7.65444 -0.586264 -0.450951 -0.673006 c @ L
-1.83304 -0.434947 7.65444 -0.586264 -0.450951 -0.673006 c @ L
-1.82038 -0.290063 7.63626 -0.711067 0.0136329 -0.702992 0 $ 5
-1.81584 0.88153 7.50326 -0.712913 -0.114761 -0.691798 - $ 1
-1.80825 0.160501 7.58042 -0.695745 0.15486 -0.701397 B 6 C
-1.80671 0.160325 7.58107 -0.696856 0.148459 -0.701677 B 6 C
-1.7926 1.16862 7.47197 -0.703045 -0.0465922 -0.709617 ` S h
-1.80511 0.379479 7.54431 -0.659143 -0.19782 -0.725533 B 5 E
-1.79583 0.880145 7.4836 -0.710766 -0.120056 -0.693108 %   *
-1.81526 0.451003 7.52152 -0.660775 -0.087697 -0.745443 k X j
-1.81526 0.451003 7.52152 -0.660775 -0.087697 -0.745443 k X j
-1.79268 -0.320345 7.61014 -0.430031 0.202735 -0.879756 | i ~
-1.79315 0.0902181 7.55922 -0.669246 -0.38317 -0.636625 z g {
-1.78761 0.493283 7.50975 -0.638312 0.122275 -0.760004 p ` r
-1.79006 -0.224871 7.58547 -0.646401 -0.270914 -0.713282 N ? Z
-1.78116 -0.32644 7.60053 -0.741883 0.111951 -0.661118 : . 5
