ply
        format ascii 1.0
        element vertex 1429
        property float x
        property float y
        property float z
        property uchar red
        property uchar green
        property uchar blue
        end_header
0.384926 -0.829078 9.664790 16 10 21
1.470237 -0.798307 9.386117 5 70 162
0.398293 -0.814052 9.666113 82 119 201
0.426875 -0.810199 9.646475 62 124 218
1.481311 -0.718015 8.836681 0 9 72
1.421708 -0.756087 9.398227 0 31 111
2.682982 -0.712764 9.017360 14 14 26
2.058930 -0.711336 9.218505 114 169 212
0.439395 -0.736220 9.635155 56 150 223
0.383878 -0.736932 9.654186 45 148 227
0.344213 -0.728530 9.667570 0 7 43
0.371954 -0.724140 9.659355 0 0 53
2.024817 -0.679597 9.225535 5 13 42
1.432613 -0.671313 9.392976 0 50 136
2.669190 -0.633901 9.013187 4 5 15
2.691916 -0.631881 8.995605 3 0 11
1.685335 -0.650885 9.323455 0 17 118
1.706269 -0.649516 9.315053 0 24 128
0.391206 -0.670751 9.650275 95 124 145
0.446222 -0.669457 9.633283 10 6 12
2.705780 -0.622243 8.992893 132 146 218
1.667104 -0.642477 9.331769 42 136 219
0.604699 -0.644765 9.604822 92 110 157
2.708563 -0.598528 9.011020 26 58 123
1.665386 -0.612991 9.334700 32 134 216
2.725489 -0.592826 9.004242 0 0 25
1.595719 -0.610079 9.349155 35 137 219
0.655526 -0.618263 9.593298 97 119 167
1.757849 -0.593980 9.314990 0 39 118
0.677888 -0.601843 9.587541 102 120 127
2.721328 -0.555102 8.988378 14 12 24
2.738669 -0.553499 8.983081 53 66 110
2.631035 -0.547944 9.029928 0 0 42
2.004558 -0.539087 9.227874 134 163 207
2.118931 -0.529923 9.197255 3 0 2
2.075316 -0.522034 9.187814 124 167 188
2.045189 -0.509956 9.216877 135 168 224
2.622516 -0.490507 9.028486 0 0 7
2.052967 -0.495497 9.209556 0 0 20
1.571592 -0.460230 9.356118 19 137 216
2.021038 -0.452078 9.228066 4 10 23
1.543939 -0.437256 9.361976 0 28 97
1.415840 -0.433582 9.397427 0 36 118
1.993108 -0.424128 9.222972 118 144 204
2.009596 -0.412804 9.219913 0 3 33
2.649094 -0.368492 9.021556 0 4 54
2.015481 -0.369771 9.219992 0 1 9
1.372064 -0.338603 9.408948 7 50 123
2.675632 -0.321722 8.995952 0 0 10
1.692729 -0.331045 9.305266 0 38 116
1.485033 -0.330365 9.377152 3 66 140
1.565900 -0.305363 9.352599 63 140 213
1.628786 -0.299644 9.333435 28 121 200
2.685021 -0.284249 9.023155 0 4 34
2.766271 -0.276910 8.985169 0 0 15
1.722377 -0.280942 9.315508 51 144 223
0.397641 -0.284890 9.643764 107 124 163
0.333087 -0.256355 9.662363 70 102 151
0.608215 -0.250767 9.583572 85 105 162
2.677988 -0.231963 9.007862 133 166 212
0.357080 -0.207527 9.638243 86 120 144
0.386051 -0.206040 9.625226 81 103 138
0.417839 -0.201409 9.627900 87 116 155
2.621145 -0.172053 9.039758 4 7 22
2.638836 -0.166071 9.019702 9 4 19
2.689811 -0.162741 8.989944 125 162 222
2.625281 -0.158715 9.023434 145 146 227
1.948574 -0.157449 9.244125 139 158 219
1.969676 -0.155487 9.224352 9 4 19
2.675405 -0.152691 9.002015 26 24 43
2.049808 -0.128990 9.198733 26 51 107
2.027341 -0.119256 9.211858 122 164 207
2.013259 -0.111872 9.219648 0 0 24
2.639219 -0.101613 9.015902 0 0 10
2.625618 -0.092536 9.020361 114 134 182
2.671522 -0.081630 8.995871 113 171 220
2.708076 -0.080814 8.985571 107 136 181
2.622104 -0.061055 9.015399 140 189 215
2.687706 -0.062888 8.991794 97 158 226
2.711176 -0.057637 8.987027 45 65 150
1.481433 -0.034277 9.364670 43 135 216
2.548291 -0.032285 9.037397 117 164 218
1.974193 -0.015630 9.232490 0 31 131
2.607728 -0.014919 9.015942 11 14 22
2.542072 -0.011296 9.057364 67 152 220
2.723133 -0.010321 8.974606 7 10 15
2.633389 -0.008854 9.016924 0 3 11
2.018991 -0.005960 9.214880 64 138 196
1.677533 0.005282 9.304530 11 53 128
2.693534 0.023704 8.980346 126 169 220
2.590685 0.025897 9.010365 4 0 48
2.709328 0.033288 8.978512 0 0 38
1.965845 0.046776 9.220428 15 12 21
2.524778 0.053629 9.039890 57 145 215
1.979611 0.057242 9.214401 101 138 176
2.060670 0.056389 9.194867 2 9 12
1.950672 0.082884 9.224577 41 72 127
2.022387 0.085004 9.205640 122 171 215
0.366315 0.103931 9.618524 110 153 216
3.640125 0.096975 8.695463 89 108 153
0.525509 0.113764 9.579103 2 0 8
4.030737 0.102167 8.565857 28 26 38
0.559313 0.118771 9.570309 8 1 8
1.508720 0.116994 9.341781 0 38 114
0.539354 0.128716 9.573899 108 137 188
1.426082 0.123724 9.377278 0 17 95
1.669613 0.128636 9.304063 0 46 124
0.285185 0.133632 9.628927 3 4 38
1.638821 0.135960 9.310378 0 18 99
1.473879 0.140607 9.359515 0 31 99
1.618728 0.145590 9.310724 31 136 217
1.983618 0.146604 9.210471 137 160 192
2.024648 0.146109 9.208024 0 0 12
2.071486 0.147058 9.181374 11 7 13
4.119087 0.140197 8.556019 137 166 211
0.319407 0.163688 9.621479 23 54 99
1.981824 0.162687 9.209802 4 9 34
0.400800 0.179704 9.600227 110 133 171
0.222152 0.183284 9.646387 97 111 140
1.947628 0.177203 9.220842 0 0 20
1.981210 0.178898 9.209614 136 173 211
2.013860 0.185780 9.199823 0 0 22
2.053481 0.184834 9.188637 137 167 214
0.367653 0.194701 9.612867 82 116 162
2.036847 0.190478 9.187962 0 0 29
1.954749 0.232175 9.213514 123 158 192
1.981764 0.245958 9.214032 23 88 149
1.948650 0.407253 9.210818 3 8 9
1.960779 0.423338 9.196950 113 165 212
1.927540 0.455466 9.209621 0 1 38
0.246620 0.479032 9.613719 116 158 195
0.334955 0.476274 9.584175 105 126 154
0.333792 0.495758 9.591584 113 146 191
0.202911 0.499251 9.621256 28 38 92
0.385789 0.496587 9.576684 0 0 57
1.348430 0.497962 9.367506 31 122 207
1.357204 0.515173 9.365142 0 1 70
1.324661 0.519673 9.373542 0 23 70
1.408785 0.516861 9.350376 0 0 37
1.934547 0.512695 9.194017 0 0 35
1.309263 0.527731 9.368451 105 142 192
0.324491 0.556170 9.580034 114 140 176
1.391246 0.553086 9.353873 61 133 205
0.291675 0.571513 9.592548 98 124 170
1.898929 0.690671 9.214828 115 159 183
1.854233 0.708970 9.211240 82 132 100
1.895627 0.710534 9.218869 89 137 195
1.903524 0.724421 9.201082 0 0 44
1.455773 0.738438 9.307781 0 22 128
1.269293 0.756693 9.362552 53 135 217
1.284323 0.758054 9.361075 0 24 106
1.482023 0.753801 9.311621 0 17 97
1.513106 0.774203 9.299937 54 136 218
1.914844 0.764298 9.178737 2 3 13
1.480217 0.786108 9.304928 0 14 89
1.640090 0.785599 9.265736 51 139 223
1.628708 0.795534 9.275504 0 22 106
1.579131 0.796911 9.263474 0 3 107
1.648137 0.798743 9.254099 0 17 90
1.909144 0.810909 9.183518 0 5 45
0.292516 0.863221 9.560215 0 3 11
0.181573 0.880402 9.588688 109 137 172
0.246665 0.880965 9.571396 74 108 151
0.341454 0.879329 9.566980 108 137 168
1.993918 0.888072 9.149900 0 10 79
1.265251 0.926188 9.334519 0 24 121
1.404098 0.946589 9.311217 32 140 217
1.371070 0.951750 9.317459 0 23 98
1.251711 0.959859 9.349082 50 143 212
1.347627 0.956443 9.320370 66 110 171
1.300692 0.960361 9.337729 19 123 200
1.297992 0.979378 9.346333 0 6 99
1.493058 0.980026 9.316042 30 131 209
1.644126 0.970409 9.240529 0 29 98
1.666720 0.972870 9.238468 2 21 64
1.613363 0.985497 9.251850 58 141 226
1.531738 0.989783 9.275409 9 56 130
1.652725 0.987103 9.233006 42 127 205
1.579357 0.994087 9.258624 0 29 94
1.602649 1.001787 9.258099 0 22 96
2.070397 0.991746 9.125516 57 102 169
2.052692 0.994277 9.130048 99 123 175
1.891452 1.032347 9.164752 6 5 9
1.904872 1.068336 9.172489 103 129 205
1.964133 1.078960 9.140705 78 125 211
1.386833 1.142994 9.295199 0 53 114
1.964293 1.134089 9.126840 123 155 184
1.346630 1.177044 9.298743 0 34 94
1.529598 1.171603 9.256464 0 33 86
1.577388 1.182616 9.243228 0 11 59
0.198722 1.245857 9.533620 74 108 151
0.234315 1.246853 9.518352 85 121 157
2.054948 1.265446 9.104305 133 167 220
2.142129 1.277399 9.063394 89 109 156
1.367687 1.343013 9.290812 0 18 122
1.431035 1.357060 9.259849 0 16 89
1.552608 1.364889 9.224361 0 17 91
1.334469 1.553627 9.240956 0 11 76
1.323650 1.566661 9.243814 46 132 208
1.579700 1.558959 9.185371 0 17 95
1.454342 1.573463 9.209498 48 141 220
1.793208 1.562233 9.112309 86 125 169
1.566368 1.583592 9.185672 0 14 89
0.274855 1.638417 9.467376 111 144 193
1.694039 1.581464 9.138956 35 66 111
1.756029 1.661214 9.118766 70 87 130
1.946329 1.698136 9.071386 79 91 145
1.682353 1.766964 9.132203 0 42 130
0.501906 1.829100 9.401921 101 135 135
0.538291 1.832965 9.386021 90 145 148
1.870421 1.782316 9.078045 0 15 92
1.907548 1.784416 9.063488 0 38 112
1.695838 1.804179 9.119959 0 38 118
0.100340 1.912540 9.476906 6 71 122
0.117252 2.714257 13.367231 54 166 208
0.383471 1.942690 9.404976 0 41 95
0.350278 1.950559 9.424013 81 135 222
0.372621 1.953731 9.405751 72 134 194
1.049389 2.002958 9.237551 107 146 178
3.359484 1.974857 8.625993 87 146 215
0.806623 3.374082 7.159692 150 146 145
0.269950 -2.178612 9.684730 25 25 25
0.777334 -1.971410 9.574921 15 116 195
0.491133 -1.943026 9.661504 41 82 50
0.876400 -1.888824 9.551156 30 110 181
0.736835 -1.845969 9.586090 33 123 194
0.767036 -1.845621 9.578796 21 117 201
0.870047 -1.823850 9.550989 31 104 166
1.304606 -1.753167 9.458348 20 22 40
1.841338 -1.695812 9.273162 93 127 180
0.768171 -1.744073 9.590227 11 11 17
0.859845 -1.722917 9.556338 24 102 169
1.823694 -1.670869 9.283938 0 2 15
2.015118 -1.663085 9.231782 31 59 119
2.043258 -1.660408 9.251566 4 4 20
0.856444 -1.634927 9.566684 12 12 48
1.522747 -1.595786 9.376339 54 138 210
1.551288 -1.587920 9.365933 18 12 43
1.812995 -1.573469 9.282754 29 141 217
1.988146 -1.566229 9.238865 24 16 46
1.522447 -1.576054 9.372452 38 136 212
1.653633 -1.572512 9.345313 65 153 217
1.757046 -1.562022 9.305358 72 145 219
0.853984 -1.596422 9.564843 0 9 42
1.905900 -1.555322 9.286438 49 144 224
1.401773 -1.566576 9.404620 23 134 214
1.592986 -1.553062 9.351433 28 137 211
1.363261 -1.534609 9.411880 27 135 212
1.537747 -1.529956 9.378909 35 131 215
1.563278 -1.527607 9.361937 44 145 220
1.649306 -1.525667 9.337461 24 15 48
0.851876 -1.555832 9.556159 0 0 29
1.421582 -1.525224 9.407290 1 0 42
1.895735 -1.504312 9.266398 17 12 44
2.233412 -1.487201 9.179628 37 124 216
1.479062 -1.512433 9.361859 58 39 156
2.000490 -1.495584 9.240397 16 6 42
1.582751 -1.508533 9.340088 7 2 57
2.511410 -1.465676 9.095264 39 70 233
2.586020 -1.462414 9.064491 19 121 220
0.830359 -1.535808 9.579360 90 135 186
2.841250 -1.447822 9.015077 45 121 227
2.023016 -1.472292 9.243780 56 140 222
2.033950 -1.465884 9.209088 27 138 218
1.494146 -1.490897 9.381272 29 135 218
2.231650 -1.451527 9.182314 11 116 203
2.429759 -1.442440 9.123088 9 35 125
2.751374 -1.420474 8.992335 12 120 221
0.848535 -1.505094 9.567026 0 1 43
2.341274 -1.435820 9.114262 5 108 200
1.897667 -1.453487 9.265198 9 8 18
1.315547 -1.473820 9.428954 34 134 212
1.467624 -1.469041 9.390672 36 25 122
2.591570 -1.427291 9.101420 23 120 218
2.363422 -1.418668 9.118710 0 3 40
3.899763 -1.348167 8.650196 44 140 223
1.408211 -1.461746 9.413414 18 11 46
0.829725 -1.484243 9.568687 82 120 174
1.518158 -1.451931 9.366782 14 7 52
1.372057 -1.451900 9.415304 32 137 211
1.920581 -1.431481 9.271009 28 131 223
1.935134 -1.427755 9.248628 26 136 226
1.491651 -1.446263 9.371317 43 142 222
2.043571 -1.416599 9.243793 47 149 214
1.664923 -1.426097 9.325533 29 141 211
1.834403 -1.418353 9.275134 29 142 215
2.118210 -1.410011 9.212559 31 144 231
2.130558 -1.404009 9.174942 32 138 223
0.742283 -1.461365 9.580195 20 119 193
1.757342 -1.421903 9.321747 32 135 214
0.843376 -1.458545 9.571681 32 49 92
0.867247 -1.447738 9.550961 26 112 212
2.408329 -1.382942 9.109572 16 10 15
1.514046 -1.415657 9.362947 22 13 46
3.584187 -1.319668 8.733562 96 146 222
1.935895 -1.391459 9.247367 18 134 223
0.822518 -1.436780 9.566418 63 98 148
1.685520 -1.399258 9.326617 18 14 39
1.584517 -1.398193 9.364297 17 5 41
2.311478 -1.371504 9.176044 109 144 194
1.618706 -1.393392 9.349439 27 16 49
2.115796 -1.374553 9.215540 16 126 221
0.159888 -1.450233 9.748120 14 12 12
1.474646 -1.384180 9.387261 60 149 229
1.432238 -1.385456 9.401044 60 154 230
1.564647 -1.383288 9.355132 42 127 195
2.462230 -1.341633 9.104043 0 3 18
1.499345 -1.377820 9.379640 44 126 204
1.317341 -1.380570 9.426207 67 145 221
1.750172 -1.362822 9.308463 39 136 210
0.821732 -1.394755 9.558484 30 74 135
1.402099 -1.367738 9.401839 4 0 50
1.274471 -1.370616 9.436207 47 150 223
1.445383 -1.359252 9.391358 64 39 153
1.863277 -1.336972 9.270903 18 17 26
0.836573 -1.369090 9.548234 20 46 83
0.861623 -1.369074 9.543572 23 123 212
1.498658 -1.345525 9.377927 72 139 214
1.536213 -1.339047 9.375515 49 142 211
2.342070 -1.293165 9.125754 14 12 12
1.208382 -1.335494 9.452822 20 15 30
2.182005 -1.297967 9.192618 100 156 221
1.470984 -1.320056 9.380807 65 147 228
2.134663 -1.294914 9.200479 96 131 171
1.321584 -1.323756 9.424891 0 0 18
1.506078 -1.314195 9.359161 0 0 43
1.551990 -1.305042 9.362771 13 6 41
1.684190 -1.297047 9.335645 22 2 55
1.353114 -1.306125 9.408767 24 87 185
0.834196 -1.322423 9.561377 22 44 92
2.138598 -1.277559 9.221918 0 12 87
2.516658 -1.259802 9.102617 32 78 156
1.523889 -1.290183 9.356959 74 149 225
1.576653 -1.287173 9.355850 62 146 211
1.732312 -1.274697 9.316549 64 156 229
1.308897 -1.216897 9.435920 46 138 209
2.267282 -1.166116 9.180220 18 123 214
2.465402 -1.155329 9.092828 0 4 5
0.445635 -1.200170 9.654878 0 39 0
2.495324 -1.116538 9.070086 5 52 120
3.062835 -1.093045 8.906862 23 16 23
0.415112 -1.117191 9.656380 13 12 14
0.498855 -1.105657 9.639711 37 129 202
0.386021 -1.091852 9.664991 64 152 212
0.710411 -1.080119 9.587891 27 127 205
0.462000 -1.037900 9.648373 39 85 163
0.410362 -1.039814 9.674498 85 124 169
2.599209 -0.882408 9.031401 53 94 173
2.086456 -0.891572 9.195811 69 118 234
0.793550 -0.912055 9.570754 16 16 30
2.085704 -0.869673 9.195702 82 155 229
2.662687 -0.844233 9.030873 93 131 195
0.112900 -0.889773 9.744929 34 13 98
2.031682 -0.810382 9.217357 124 160 196
0.649557 -0.831108 9.604193 70 147 216
1.494999 -0.781116 9.378876 22 132 214
2.616587 -0.750385 9.050167 17 15 37
0.412276 -0.758659 9.645965 34 140 217
1.962389 -0.725224 9.230186 67 170 225
0.436982 -0.755417 9.648656 34 136 219
0.376372 -0.746362 9.669310 68 144 226
2.594030 -0.692295 9.053214 0 109 209
2.609175 -0.666282 9.041138 23 17 48
0.355080 -0.709581 9.660790 99 154 211
2.444878 -0.668773 9.107469 79 120 165
1.384167 -0.670191 9.412412 0 35 116
0.369432 -0.682559 9.648686 5 5 11
0.413082 -0.679795 9.643556 23 22 24
0.344990 -0.659909 9.662151 60 119 188
1.770853 -0.635312 9.299346 52 103 173
1.966613 -0.627037 9.235945 19 90 153
2.728687 -0.537076 8.996284 81 114 170
1.952432 -0.548189 9.242907 30 141 233
2.655401 -0.534945 9.018456 110 143 206
2.051491 -0.524160 9.208071 109 145 199
2.718664 -0.457678 9.014574 112 160 232
1.775327 -0.464619 9.290851 19 121 203
1.930369 -0.461335 9.272131 42 141 227
2.636586 -0.445688 9.036186 0 0 29
1.468192 -0.460194 9.385210 25 129 212
2.589097 -0.433798 9.042487 21 25 36
1.945048 -0.422095 9.236857 17 136 229
2.056401 -0.420072 9.212717 52 109 161
0.656561 -0.437166 9.589715 42 130 214
2.629499 -0.393688 9.016299 95 126 195
0.673251 -0.410729 9.583305 0 1 34
2.661361 -0.385240 9.020315 16 55 134
3.610710 -0.371830 8.679547 75 97 155
1.769174 -0.375231 9.302668 27 126 210
1.767501 -0.338607 9.296885 17 122 203
0.337727 -0.337688 9.647955 39 140 215
0.401940 -0.333176 9.630335 45 143 219
0.438347 -0.330724 9.636267 14 115 194
0.647245 -0.319541 9.586714 54 152 224
0.374794 -0.295405 9.649773 5 5 11
0.351486 -0.272989 9.646002 16 92 168
2.176681 -0.249005 9.162363 78 99 160
0.435839 -0.261634 9.636085 22 102 173
0.391120 -0.257296 9.645162 2 38 92
2.643522 -0.234321 9.015924 104 155 217
0.642177 -0.240990 9.580909 60 85 129
2.728579 -0.217022 9.006752 62 97 170
0.344797 -0.227637 9.644263 15 11 16
2.635474 -0.206221 9.032794 0 4 23
2.702882 -0.202426 9.009151 0 0 18
2.751232 -0.198765 8.969344 9 17 54
0.326035 -0.184953 9.662248 13 10 19
1.966463 -0.137278 9.223524 14 60 107
2.071725 -0.135214 9.205034 45 57 115
4.013676 -0.123861 8.586823 132 166 219
2.002141 -0.043139 9.211414 5 5 11
2.573192 -0.032733 9.046341 6 5 14
0.295013 -0.011262 9.635185 10 122 206
2.684713 0.009760 8.997445 37 81 145
2.552281 0.035075 9.083377 23 19 30
0.265812 0.040183 9.651624 40 140 212
0.404792 0.051983 9.619509 35 148 221
2.522300 0.053718 9.093437 73 144 201
2.076674 0.079268 9.169311 40 134 200
0.313250 0.083874 9.637624 2 0 8
0.399666 0.092213 9.619450 12 11 15
0.231649 0.104745 9.656531 41 103 167
0.289696 0.106131 9.645284 65 123 182
1.725907 0.114441 9.299823 25 129 212
0.513697 0.129925 9.594362 80 119 157
0.255439 0.146278 9.636899 8 14 19
0.541961 0.154798 9.588796 1 5 23
1.885127 0.149958 9.250614 76 136 95
0.280171 0.163918 9.635890 64 98 164
0.332069 0.172306 9.626248 0 60 125
1.664381 0.177408 9.308778 23 58 126
4.562150 0.162437 8.463270 119 139 196
0.428685 0.197990 9.597846 35 65 106
3.985033 0.177175 8.555408 39 31 42
0.400489 0.207928 9.614928 1 0 10
1.974323 0.224051 9.211042 6 7 17
1.910030 0.310014 9.229634 16 15 17
1.965943 0.315873 9.192738 0 1 5
1.852509 0.322374 9.251496 98 155 200
0.268556 0.391979 9.612431 36 142 219
0.267139 0.467130 9.604970 8 4 10
0.351767 0.466916 9.570441 5 7 15
0.307914 0.525103 9.604859 0 0 16
0.253245 0.555004 9.606416 15 57 116
0.295952 0.564882 9.594959 0 0 46
0.323955 0.585549 9.598124 7 10 14
1.911210 0.614914 9.204561 107 163 192
1.934599 0.636563 9.195264 12 9 35
0.308659 0.675510 9.567699 40 146 210
0.330682 0.704824 9.568809 36 145 223
1.823310 0.689979 9.227605 56 106 42
0.231163 0.802089 9.585680 33 137 214
0.272593 0.876281 9.571754 2 30 94
2.001618 0.860302 9.155292 16 14 20
1.811195 0.877384 9.228266 96 153 205
2.050748 0.868146 9.141368 17 14 16
1.652344 0.947709 9.238938 24 120 203
1.471543 0.966422 9.294868 10 78 151
2.102733 0.991793 9.116227 93 114 166
1.640948 1.018176 9.229935 30 134 217
1.792427 1.150977 9.187182 87 189 164
1.994199 1.150354 9.125436 35 73 137
0.174364 1.246454 9.536053 81 115 151
2.292835 1.183917 9.029222 104 136 195
0.228079 1.257988 9.519953 30 58 105
1.825088 1.256541 9.135368 115 180 224
0.241796 1.611950 9.474669 13 9 14
1.739578 1.563339 9.125079 52 74 116
1.778686 1.584528 9.123244 72 102 151
1.578411 1.605138 9.184895 24 125 203
1.650840 1.606562 9.159312 0 0 14
1.799619 1.666324 9.106206 58 76 123
1.890749 1.687591 9.073341 21 49 96
0.514207 1.846208 9.388660 15 32 11
0.359394 1.925890 9.421684 32 126 221
0.771920 1.958886 9.333334 49 105 216
1.519707 1.983919 9.128964 0 0 9
1.596679 2.022381 9.121557 45 52 115
1.593322 2.053675 9.114260 30 42 106
3.810446 1.990812 8.506454 34 66 142
-1.041635 3.727839 11.310515 0 0 7
0.250722 3.488110 7.724880 88 87 83
3.105239 4.836989 10.535469 97 106 110
0.874905 3.326267 7.219019 192 187 186
1.295950 -1.450513 9.430776 30 26 101
1.912755 1.166143 9.117760 38 41 72
0.822072 -2.002911 9.559732 48 105 161
0.967189 -1.896561 9.524377 61 115 162
1.534170 -1.871656 9.392716 61 93 142
0.874222 -1.897006 9.556350 19 107 177
2.062485 -1.828950 9.249487 38 64 124
0.491502 -1.904978 9.641703 15 13 13
0.892857 -1.858581 9.547272 9 16 41
0.512579 -1.868738 9.676280 46 113 170
0.478332 -1.845015 9.642396 11 8 10
0.494409 -1.802337 9.656381 71 105 158
0.737486 -1.782026 9.607947 77 103 149
1.784574 -1.712998 9.292354 118 153 203
2.165425 -1.688836 9.183380 10 13 18
1.766554 -1.705890 9.293621 111 156 200
1.848278 -1.705411 9.310539 93 127 180
1.955903 -1.691886 9.248012 96 134 188
1.804241 -1.690100 9.290286 122 162 215
2.240493 -1.664109 9.151226 107 161 222
0.761048 -1.741428 9.586297 15 16 20
2.016359 -1.668996 9.228636 67 107 165
1.775529 -1.674716 9.288901 25 27 35
2.474800 -1.638284 9.095141 65 70 119
0.838810 -1.670313 9.569326 79 133 186
1.288868 -1.625987 9.429035 18 19 39
1.744477 -1.591984 9.313886 24 18 41
1.261667 -1.605093 9.452971 33 127 203
1.998664 -1.576981 9.266615 21 20 46
1.464854 -1.590265 9.386689 29 140 210
1.708552 -1.585185 9.332347 36 142 219
1.585575 -1.585355 9.361060 32 149 224
1.948939 -1.554865 9.232846 27 142 222
1.443740 -1.560296 9.396449 53 151 227
2.252860 -1.514240 9.154114 23 15 46
1.648167 -1.533925 9.324327 13 5 82
1.752688 -1.526001 9.297976 19 8 94
2.471637 -1.498649 9.115398 27 13 49
1.731612 -1.530864 9.324917 8 1 36
1.894080 -1.511354 9.252353 0 0 73
1.535822 -1.528857 9.370439 38 139 218
2.658527 -1.474665 9.033478 15 12 44
1.978281 -1.508545 9.252238 18 13 42
2.000005 -1.504449 9.236454 16 15 109
1.427203 -1.532993 9.389601 4 0 68
2.225384 -1.488813 9.167966 66 124 237
1.387259 -1.524982 9.409504 43 142 216
1.588994 -1.512025 9.354570 3 0 45
2.600342 -1.470340 9.099657 30 125 229
1.479426 -1.513942 9.370226 58 39 156
2.514210 -1.473777 9.132586 36 69 232
3.340995 -1.439894 8.884995 29 23 48
0.828180 -1.534648 9.573424 19 67 115
2.035423 -1.478892 9.251521 21 139 218
1.495016 -1.490654 9.386829 29 135 218
0.848945 -1.505810 9.568596 0 1 43
2.400470 -1.444622 9.155615 21 118 208
2.471691 -1.442381 9.134363 8 118 214
3.368364 -1.389610 8.833253 19 119 225
0.905092 -1.502016 9.565089 28 31 193
1.228254 -1.480693 9.452404 39 135 211
2.592922 -1.424028 9.079575 4 116 212
1.466197 -1.470745 9.394925 55 39 150
1.817627 -1.455207 9.297039 19 16 41
0.434252 -1.507913 9.665327 38 115 184
1.413915 -1.468503 9.404929 9 0 89
2.362578 -1.416095 9.115354 4 10 29
2.425256 -1.410868 9.103592 8 11 25
0.470177 -1.492442 9.669451 31 119 190
1.926935 -1.425008 9.254651 24 137 223
1.658282 -1.431507 9.335332 33 141 223
2.485045 -1.393121 9.088287 16 14 14
0.709169 -1.468209 9.593945 34 130 206
0.738559 -1.466146 9.584552 29 127 203
1.834928 -1.418497 9.281986 37 146 224
2.048347 -1.415546 9.238643 49 144 213
2.863807 -1.375888 8.990461 0 0 20
1.766981 -1.425883 9.307939 36 142 225
2.123574 -1.402980 9.189397 16 135 221
1.515639 -1.414419 9.361173 22 15 42
1.926460 -1.396707 9.257114 14 134 223
2.463343 -1.369822 9.083002 0 11 69
1.690191 -1.401870 9.326934 30 15 47
1.342848 -1.413887 9.432344 31 24 51
1.803010 -1.396058 9.306057 21 12 39
1.728916 -1.395139 9.314973 22 11 44
1.620289 -1.395485 9.346886 21 16 45
2.128593 -1.381381 9.217597 18 133 224
2.493551 -1.357927 9.107722 43 68 124
1.432094 -1.384055 9.400438 60 154 230
1.749331 -1.359368 9.308261 71 157 239
0.637265 -1.400042 9.604479 65 92 129
0.703041 -1.398282 9.597622 90 113 159
0.815947 -1.395792 9.564346 53 89 135
0.791486 -1.375144 9.581969 0 0 11
1.719305 -1.337905 9.302455 23 14 54
0.866921 -1.368699 9.545350 16 123 208
1.541186 -1.339255 9.356486 47 152 225
1.675067 -1.334341 9.330991 59 152 227
1.207125 -1.339815 9.457245 20 14 33
2.343355 -1.293797 9.131052 14 12 12
2.181538 -1.296353 9.189870 26 108 186
1.988311 -1.303707 9.244760 2 43 75
1.503645 -1.313681 9.372361 6 3 72
1.554505 -1.311180 9.364758 22 7 69
1.790444 -1.297119 9.285182 20 12 53
2.136311 -1.287094 9.212499 92 114 180
1.707102 -1.296961 9.312673 23 17 42
1.469658 -1.300554 9.367753 48 140 219
2.512565 -1.250864 9.082952 62 110 162
1.523199 -1.290583 9.353895 74 149 225
1.732132 -1.272445 9.312158 64 156 229
0.686425 -1.206990 9.594803 21 131 207
1.830161 -1.164878 9.279760 39 136 216
2.492936 -1.125907 9.084520 28 80 156
2.268684 -1.126221 9.133575 8 122 213
2.712013 -1.111428 9.047413 54 104 176
0.469317 -1.178510 9.645192 48 140 205
1.182754 -1.162138 9.496308 0 48 15
2.752337 -1.100842 9.002657 26 81 138
2.642325 -1.086941 9.039187 0 0 16
0.518264 -1.143564 9.639826 39 130 205
3.432054 -1.033266 8.738443 54 106 176
0.498886 -1.110269 9.642529 22 122 200
0.418967 -1.108167 9.660850 12 14 14
1.664676 -1.056134 9.329176 0 18 85
1.755558 -1.043018 9.312649 39 91 162
0.418233 -1.076449 9.647889 15 13 19
0.436692 -1.062038 9.662608 16 11 12
2.640004 -0.980733 9.048834 115 152 208
0.760078 -1.016311 9.600841 10 11 21
0.782113 -0.986822 9.573182 65 102 154
2.086859 -0.939276 9.200365 0 0 9
1.808142 -0.946658 9.276562 29 134 215
1.479991 -0.941555 9.380836 19 85 168
2.011262 -0.909372 9.230319 10 17 12
2.087466 -0.885138 9.206141 64 133 203
2.664464 -0.849266 9.045974 41 74 137
2.563067 -0.831722 9.055661 21 21 27
0.105529 -0.870651 9.601607 45 28 119
3.687333 -0.771828 8.712210 76 96 151
1.799261 -0.788223 9.283926 23 128 209
2.557579 -0.757538 9.059883 4 2 14
1.444164 -0.777261 9.379797 0 32 93
2.625978 -0.730761 9.041260 19 18 27
2.678407 -0.720900 9.037425 18 17 27
0.432408 -0.750339 9.654450 36 139 218
2.022379 -0.711188 9.222180 11 48 108
0.379861 -0.744697 9.669932 61 147 231
2.696950 -0.687617 9.013402 21 62 131
1.956067 -0.696396 9.255594 22 130 207
2.616443 -0.668166 9.062507 24 19 48
0.381696 -0.696776 9.650156 0 0 37
1.991221 -0.648629 9.240005 15 18 26
2.644351 -0.626088 9.066309 81 110 167
0.631790 -0.657286 9.588295 11 10 12
0.582049 -0.633718 9.622354 97 120 170
1.988278 -0.588836 9.233563 17 15 21
1.783529 -0.567754 9.299718 25 132 213
1.944199 -0.546133 9.253711 18 133 224
2.126682 -0.489318 9.183998 3 4 14
1.774133 -0.468751 9.297130 24 128 211
1.980703 -0.463183 9.238904 17 14 23
2.603328 -0.417445 9.050120 20 19 28
1.979748 -0.407471 9.251713 18 13 28
0.673981 -0.409595 9.583946 3 10 29
0.650123 -0.389269 9.598447 20 118 190
2.062086 -0.368543 9.211669 8 12 13
1.767148 -0.369274 9.310521 23 129 212
2.586117 -0.353947 9.056261 24 21 36
0.340993 -0.374628 9.667259 44 140 216
0.403391 -0.369009 9.654899 43 145 217
0.437891 -0.366600 9.634828 22 121 201
1.924888 -0.347040 9.242778 58 157 219
2.038333 -0.346887 9.213290 79 155 207
2.082971 -0.340460 9.200356 16 59 140
0.299167 -0.345935 9.673902 27 116 190
0.401115 -0.336679 9.633704 49 144 224
2.016894 -0.320093 9.225204 0 0 13
0.614130 -0.326963 9.607040 19 131 221
2.698274 -0.305944 8.987676 109 156 207
1.452394 -0.312362 9.384812 0 6 94
0.277073 -0.310721 9.674545 9 12 10
2.644287 -0.281022 9.030526 16 15 25
0.373728 -0.298647 9.651681 12 13 17
1.553023 -0.289995 9.361994 7 61 132
2.154065 -0.269169 9.191708 19 15 20
0.295159 -0.274600 9.669284 53 113 167
0.350341 -0.271906 9.647840 34 98 169
2.030351 -0.256639 9.213035 81 161 224
1.921774 -0.258337 9.279666 78 160 225
0.435719 -0.263129 9.632926 22 102 173
2.120923 -0.244559 9.187953 80 149 198
2.177694 -0.245304 9.175850 95 108 176
2.008160 -0.230758 9.222662 0 4 19
0.409411 -0.237156 9.636158 0 0 22
2.609657 -0.222644 9.030567 70 117 179
0.346622 -0.227859 9.635991 15 11 16
2.732359 -0.215151 9.004527 0 24 101
1.941674 -0.141735 9.254114 2 33 78
3.680146 -0.129862 8.690992 29 25 36
2.651467 -0.074277 9.017183 109 155 202
0.618451 -0.059119 9.578196 17 112 186
2.561257 -0.052032 9.048996 4 0 12
1.914160 -0.050365 9.247351 19 15 20
1.863230 -0.036873 9.273534 56 129 121
1.934808 -0.020115 9.240577 25 68 119
1.979932 -0.020159 9.219165 108 164 213
0.273186 -0.007718 9.658032 10 123 203
0.404784 0.001171 9.625628 38 146 217
2.773969 0.015754 8.977029 108 144 198
2.663957 0.032948 8.984071 0 0 18
1.727804 0.042853 9.293079 23 128 209
0.401235 0.047933 9.622156 24 139 219
0.577689 0.061692 9.588585 9 107 185
2.623700 0.054356 9.021824 7 7 19
1.957561 0.070909 9.226668 60 91 154
0.313004 0.082361 9.647301 20 12 23
0.262976 0.082067 9.650891 0 0 6
0.398386 0.091314 9.621219 12 11 15
2.003514 0.099903 9.219954 13 12 14
0.288234 0.106928 9.640659 68 122 175
0.373100 0.116532 9.616871 45 124 187
4.551108 0.108024 8.468249 34 27 40
0.518012 0.131010 9.621817 37 78 117
0.306237 0.137076 9.627456 7 9 39
0.567739 0.141700 9.574286 82 108 155
0.254819 0.147892 9.638869 5 10 13
0.410044 0.151574 9.601267 11 11 17
2.111584 0.147883 9.176491 21 17 29
1.465677 0.161662 9.366302 47 124 197
0.281030 0.167726 9.635126 97 128 181
1.712411 0.215038 9.285844 25 134 212
1.941623 0.249297 9.236835 21 76 145
1.993274 0.248544 9.201782 64 99 167
0.347236 0.289498 9.610897 31 143 219
0.275825 0.346139 9.624675 28 139 212
1.893256 0.383615 9.221428 12 16 17
1.858132 0.439799 9.234108 30 140 216
0.268978 0.467743 9.614333 2 0 3
0.238410 0.481991 9.616170 100 133 178
0.322865 0.491971 9.609284 0 41 92
0.233026 0.512321 9.613513 6 5 14
1.401390 0.499438 9.362242 69 86 137
0.307454 0.524750 9.616281 0 0 16
0.282588 0.538970 9.595407 14 12 18
0.249773 0.554898 9.611154 21 61 119
1.873991 0.673507 9.204637 18 16 22
1.826938 0.692167 9.235321 45 98 35
1.903707 0.698969 9.201407 27 118 173
0.235344 0.798611 9.582650 26 141 214
1.979214 0.792608 9.150061 53 98 165
1.657281 0.822994 9.248417 21 132 210
0.160799 0.877401 9.659866 74 96 138
2.057455 0.830544 9.144534 14 12 24
1.952617 0.855477 9.166524 11 13 21
1.886351 0.874092 9.187048 64 120 175
1.931215 0.877452 9.182934 112 158 216
1.971369 0.881284 9.147743 0 40 137
2.019554 0.888456 9.143582 97 147 199
2.078481 0.892126 9.145779 92 116 162
1.426319 0.967875 9.301273 0 20 87
2.042245 0.951223 9.128341 18 21 35
1.667793 0.972796 9.233520 0 0 25
1.578506 0.981337 9.255302 0 25 89
2.066762 0.980039 9.120293 97 132 188
1.836103 1.032597 9.174632 20 15 24
1.802417 1.057645 9.214842 92 166 222
2.059535 1.066913 9.120672 89 124 180
1.890319 1.081282 9.162213 0 0 13
0.201431 1.177575 9.553993 8 110 185
1.873745 1.155757 9.270523 123 156 225
1.827960 1.166137 9.182570 9 10 14
2.086504 1.161440 9.098672 65 94 145
2.059294 1.181616 9.103628 10 11 25
1.620562 1.224197 9.211186 21 121 203
2.186188 1.288364 9.062237 127 159 230
1.752517 1.357658 9.183864 86 156 173
1.769527 1.388834 9.159454 10 10 10
0.239960 1.607239 9.471498 5 1 6
1.754704 1.672245 9.120977 78 99 144
1.776182 1.695596 9.114726 15 16 42
1.812733 1.696046 9.085358 13 15 33
1.861487 1.701209 9.075249 0 0 33
1.919308 1.706332 9.069669 15 19 38
0.360032 1.928539 9.418180 14 130 219
0.612307 1.915007 9.330700 9 12 20
0.393746 1.935560 9.411171 32 138 225
0.681562 1.930643 9.358652 8 9 19
0.525697 1.937480 9.372597 22 103 40
0.293202 1.985319 9.433972 5 4 6
0.776657 1.973586 9.340734 48 106 219
0.571552 2.009788 9.361068 6 4 4
1.517346 1.988333 9.128581 16 12 24
1.639881 2.097159 9.097448 13 12 14
-1.524745 3.707477 11.694233 120 134 140
-0.440397 3.401659 8.197298 177 177 177
0.792473 3.358726 7.296899 93 87 82
2.636674 -0.810679 9.049396 15 15 27
0.780139 -2.007840 9.575910 19 14 15
0.833486 -1.994276 9.548333 31 106 174
0.866733 -1.905077 9.556689 25 111 181
1.534818 -1.874087 9.405544 74 108 154
0.513986 -1.870441 9.651490 64 122 181
0.560518 -1.847776 9.641294 20 16 21
0.765462 -1.807632 9.585261 18 16 22
2.166355 -1.701812 9.200064 18 17 26
0.750722 -1.737567 9.593109 18 14 19
2.015477 -1.672251 9.235266 0 27 91
1.968266 -1.649025 9.233131 16 18 28
0.976082 -1.685792 9.544898 4 105 207
1.495066 -1.616078 9.388353 26 19 46
1.748488 -1.600802 9.313669 28 18 48
1.994410 -1.578232 9.238976 22 20 42
1.583003 -1.565297 9.348398 33 144 216
1.930802 -1.540685 9.235540 31 143 219
2.035710 -1.531557 9.201331 28 143 223
0.732420 -1.579847 9.588925 31 128 208
1.742232 -1.521461 9.317445 23 18 45
2.294406 -1.489528 9.152045 7 120 214
2.409654 -1.478753 9.120634 16 115 223
1.531399 -1.512961 9.373640 38 139 214
1.601995 -1.511832 9.365545 28 20 51
2.229865 -1.475605 9.183969 24 118 225
2.032884 -1.481531 9.233208 27 142 223
2.473604 -1.448399 9.128774 0 110 204
2.586083 -1.439600 9.067533 17 115 217
2.751949 -1.428094 9.015220 13 121 222
1.828317 -1.466259 9.297702 23 21 41
1.968506 -1.461706 9.269619 13 12 21
1.368689 -1.466143 9.423282 44 145 223
1.417709 -1.458936 9.404227 20 15 44
2.360111 -1.411927 9.110817 16 15 25
2.424010 -1.411618 9.098955 1 7 36
3.922739 -1.346486 8.662892 38 141 220
1.532256 -1.446958 9.372421 19 14 41
2.177290 -1.417370 9.190608 15 14 23
2.641266 -1.395149 9.059816 0 0 35
1.320726 -1.434991 9.398999 5 3 45
1.927056 -1.410276 9.260798 17 135 224
1.410368 -1.428512 9.399253 19 13 38
2.544611 -1.382342 9.103427 16 17 15
1.217708 -1.425816 9.438525 24 15 35
2.124029 -1.388612 9.196887 17 135 224
1.338672 -1.418789 9.432483 25 16 42
1.703036 -1.407021 9.338789 24 13 46
2.453084 -1.370154 9.105004 90 123 172
0.137808 -1.414200 9.617588 18 16 16
0.422959 -1.419155 9.665884 15 34 95
2.077638 -1.350851 9.200608 17 13 19
1.491461 -1.371731 9.383277 70 118 206
1.208161 -1.354374 9.470578 19 15 34
1.707735 -1.314388 9.329477 17 11 34
1.360314 -1.310106 9.414440 70 149 230
1.548120 -1.252117 9.343793 25 19 42
1.679114 -1.233846 9.315994 25 16 37
1.293362 -1.202117 9.458091 37 135 219
2.271735 -1.143820 9.156585 10 126 220
0.380009 -1.197968 9.677312 29 112 37
1.878784 -1.131968 9.276338 18 17 19
3.004827 -1.067448 8.938845 96 123 197
1.404130 -1.097604 9.418748 27 50 106
1.661300 -1.065621 9.331563 92 156 214
0.425013 -1.087378 9.665109 18 17 19
1.803838 -0.959893 9.281621 24 130 213
2.011007 -0.921033 9.238881 17 17 17
2.648878 -0.892476 9.059081 18 19 23
1.796212 -0.878724 9.293453 29 130 216
0.782779 -0.898522 9.580903 15 18 22
2.006304 -0.846528 9.229862 15 14 16
3.542781 -0.791596 8.839010 93 92 166
2.071367 -0.791707 9.207060 97 131 184
0.667343 -0.817476 9.596768 64 150 220
2.552169 -0.759208 9.053577 15 14 24
1.445685 -0.777462 9.402504 0 33 84
1.612041 -0.762381 9.399402 39 84 157
0.594333 -0.684905 9.604887 15 14 18
1.390898 -0.655859 9.435944 0 29 109
2.706490 -0.605988 9.003138 104 145 214
0.454497 -0.642486 9.653646 56 73 124
0.586775 -0.635239 9.613592 8 28 75
1.986406 -0.578556 9.242594 15 15 21
2.678922 -0.494239 9.016667 20 17 26
1.905399 -0.488873 9.261069 11 14 18
1.418913 -0.455773 9.404040 0 38 99
1.759571 -0.353110 9.305023 25 131 216
1.925622 -0.346306 9.252286 58 157 219
0.626690 -0.332850 9.606463 11 127 221
1.372037 -0.327922 9.404950 0 45 116
0.270549 -0.309829 9.677362 16 12 17
1.953775 -0.289080 9.255546 16 15 19
0.382742 -0.297214 9.654880 12 8 14
2.594707 -0.264615 9.052556 18 16 28
0.602026 -0.241845 9.591712 70 97 141
1.990152 -0.170383 9.220423 14 16 16
1.915764 -0.056048 9.252726 20 16 22
0.601913 -0.052524 9.590172 46 142 218
2.568172 -0.047146 9.055346 27 19 30
1.359697 -0.039512 9.395204 0 24 106
1.545699 -0.028058 9.347660 0 48 114
3.992425 -0.010628 8.574579 26 25 41
2.788859 0.010110 8.970271 56 81 145
0.278770 0.018990 9.654275 27 144 219
0.394707 0.026696 9.633466 25 145 217
1.936285 0.036174 9.246490 19 18 22
1.716735 0.051462 9.289319 24 132 214
0.528304 0.084461 9.597888 10 12 20
1.712647 0.100104 9.291471 25 129 212
2.002954 0.108144 9.213251 19 15 20
1.530853 0.144924 9.344732 0 26 109
1.873892 0.243724 9.240196 10 44 114
0.288702 0.294601 9.621329 33 141 219
0.327379 0.416723 9.614091 31 147 218
1.858508 0.425948 9.230979 16 117 169
0.380745 0.450481 9.596691 19 16 18
0.288359 0.472264 9.653055 0 0 9
0.201134 0.483698 9.616817 15 40 72
0.201573 0.537993 9.627904 16 14 14
0.308130 0.535721 9.702169 9 6 15
1.853843 0.517365 9.235623 52 93 56
1.656297 0.747556 9.261014 24 130 215
1.823791 0.788095 9.203787 87 161 219
0.353354 0.843157 9.560866 12 14 14
1.648930 0.832791 9.249436 21 128 213
1.815686 0.877592 9.200825 70 162 221
1.640121 0.934299 9.238928 24 130 215
1.671056 0.976649 9.238916 13 25 49
2.076469 0.982394 9.127290 133 170 250
2.068996 1.068695 9.127134 102 146 205
0.210862 1.169017 9.550055 38 136 212
2.020635 1.122506 9.121040 17 15 21
1.650291 1.191764 9.219588 10 12 22
1.790333 1.292517 9.175177 17 16 18
2.274184 1.297045 9.027596 96 150 203
1.775549 1.405493 9.182339 10 13 17
0.177996 1.543792 9.505532 37 138 216
0.241525 1.549758 9.493266 19 120 199
0.121876 1.576533 9.508530 14 12 12
0.132404 1.622276 9.499694 78 128 174
1.626849 1.590774 9.193802 16 17 31
1.926288 1.711517 9.113018 11 17 40
1.297267 1.752572 9.230706 43 77 161
0.498427 1.849830 9.350738 0 38 62
0.588746 1.875222 9.385307 24 129 210
0.234726 1.926631 9.442163 58 81 113
0.043376 1.946364 9.489786 14 12 12
0.374629 1.933624 9.427049 18 134 218
0.599161 1.929227 9.357552 10 9 18
0.162090 1.956935 9.459425 13 10 12
0.693890 1.939700 9.354877 8 11 15
0.285924 1.971746 9.427379 18 15 17
1.086496 1.977326 9.275408 9 8 17
0.844711 2.017109 9.286864 15 13 19
1.758671 2.029742 9.090261 18 17 21
1.769624 2.098466 9.065357 16 15 17
0.483196 3.064644 9.677510 18 12 67
1.930858 -1.692331 9.258211 1 27 73
0.847909 -1.739545 9.564239 35 102 165
1.393006 -1.507074 9.405512 53 151 221
2.325241 -1.452209 9.110187 0 40 167
1.320483 -1.340879 9.442942 56 76 134
1.953151 -0.142039 9.245786 0 0 34
2.022003 -0.138248 9.205538 84 114 173
2.604278 0.078543 9.099919 41 91 167
0.278948 0.412058 9.610274 26 129 208
1.841516 0.933456 9.191707 25 24 40
0.532159 1.893249 9.385458 21 30 9
0.107507 1.915663 9.479641 38 90 160
0.851323 -1.988237 9.554123 28 108 179
0.905468 -1.946904 9.559594 6 11 26
0.987027 -1.911580 9.510490 102 139 189
0.454308 -1.942291 9.693386 16 15 17
2.238755 -1.805448 9.179597 31 52 103
0.906828 -1.876104 9.645502 13 17 35
0.566878 -1.841057 9.634427 21 16 18
0.684476 -1.834776 9.599061 20 18 18
1.297108 -1.775514 9.430682 68 101 151
1.765837 -1.713678 9.308600 124 164 206
0.916042 -1.750850 9.546794 19 23 34
1.810476 -1.702531 9.286291 57 97 146
2.214208 -1.664436 9.159232 38 85 137
1.101628 -1.667204 9.523189 30 30 196
1.753130 -1.612379 9.320769 25 20 47
1.315073 -1.593193 9.417014 28 134 211
1.274235 -1.585129 9.440608 67 110 213
1.681189 -1.564397 9.329470 32 139 220
1.370890 -1.573715 9.409379 113 165 232
1.792070 -1.560250 9.308393 28 144 221
2.034374 -1.532589 9.230645 34 144 226
2.349391 -1.507378 9.086649 24 19 46
0.498758 -1.589820 9.669257 44 129 199
0.733429 -1.568606 9.586322 23 131 209
2.671769 -1.484292 9.055844 25 17 47
2.790857 -1.466611 8.988950 29 21 51
1.217723 -1.541464 9.472394 21 16 45
2.596360 -1.449037 9.089861 14 115 217
0.886492 -1.517416 9.571564 27 31 190
1.247789 -1.484406 9.457777 56 142 224
2.084129 -1.440716 9.233858 11 1 13
1.996736 -1.435045 9.244128 11 14 18
2.519899 -1.401460 9.080205 9 10 24
0.156866 -1.503842 9.758782 196 196 196
1.539689 -1.437909 9.371259 20 14 39
1.421984 -1.440244 9.410040 18 16 46
4.060732 -1.338345 8.698598 31 135 224
2.243797 -1.400729 9.190822 22 18 23
3.028898 -1.362869 8.953959 10 6 31
1.324151 -1.426487 9.418530 27 23 42
2.307946 -1.366541 9.164659 85 120 170
0.960861 -1.397050 9.557121 18 124 212
1.349936 -1.365795 9.411444 69 151 228
1.904449 -1.349351 9.271753 33 35 23
1.381798 -1.358442 9.412720 80 155 234
1.466882 -1.360630 9.396340 77 150 230
1.655769 -1.345899 9.338680 61 152 233
2.434635 -1.309637 9.154821 19 16 18
1.829636 -1.323037 9.286116 86 156 226
1.260358 -1.312866 9.433015 68 156 233
1.306837 -1.277439 9.424878 25 15 91
1.771991 -1.236060 9.300934 24 16 39
1.851415 -1.229608 9.297276 23 19 30
0.416639 -1.223848 9.651626 26 125 47
1.299884 -1.191001 9.473080 27 132 219
1.806554 -1.144042 9.274578 28 135 220
0.484380 -1.140667 9.667184 24 122 200
0.693199 -1.105658 9.605442 30 132 207
1.725676 -1.054525 9.273607 0 43 150
0.619150 -1.071222 9.609781 16 15 17
2.117723 -0.835076 9.218052 14 16 16
3.626921 -0.737119 8.702682 24 23 33
1.422616 -0.781088 9.403588 6 45 119
1.413135 -0.761405 9.193999 0 33 84
1.545251 -0.752502 9.357025 42 74 139
0.349623 -0.770152 9.674178 15 12 14
1.830011 -0.740596 9.319888 11 13 24
0.479471 -0.693986 9.649145 13 13 13
0.586926 -0.693298 9.608621 18 15 17
1.911816 -0.665352 9.249842 22 15 22
1.999041 -0.665927 9.260798 18 17 27
1.812268 -0.609330 9.297608 13 12 16
2.692423 -0.539080 9.015606 101 168 217
2.070861 -0.509078 9.200351 34 70 130
1.519061 -0.432051 9.362427 47 79 144
1.802391 -0.421016 9.315097 12 12 28
0.632237 -0.417066 9.593402 27 136 221
2.109583 -0.403376 9.229921 17 16 20
1.888089 -0.382630 9.248796 18 16 22
0.415581 -0.352970 9.643864 23 124 202
1.785403 -0.297291 9.308071 0 0 21
0.607049 -0.240086 9.583462 0 33 79
1.964698 -0.211076 9.253782 15 16 20
1.921235 -0.065294 9.247166 17 15 21
1.677015 -0.014691 9.284047 0 36 117
1.763967 0.002836 9.304041 3 8 29
0.289628 0.015262 9.651504 23 143 215
2.084560 0.017451 9.214611 17 14 23
1.935736 0.034427 9.235600 18 17 19
0.593805 0.043347 9.581244 32 134 209
0.520314 0.074378 9.600792 16 14 20
1.705290 0.070398 9.285080 25 131 216
0.312822 0.305733 9.618997 34 144 220
0.305496 0.403839 9.608507 24 132 210
0.392237 0.441477 9.590988 15 14 23
1.290682 0.509109 9.364841 81 108 158
0.402180 0.561969 9.564968 14 16 17
1.884423 0.657894 9.239737 14 15 25
1.276571 0.753519 9.353447 46 126 203
0.296568 0.784629 9.577878 21 142 216
0.366606 0.837526 9.562023 16 13 15
1.635816 0.841865 9.230766 16 130 214
1.861716 0.918387 9.213951 14 13 23
1.627731 0.926048 9.235144 24 131 216
1.672675 0.979262 9.240785 5 14 41
0.231764 1.075213 9.552053 26 127 202
1.845135 1.100460 9.201778 20 15 24
2.021013 1.104979 9.080647 24 18 29
2.069825 1.156068 9.119652 78 109 148
1.598030 1.235235 9.202102 19 127 209
2.160997 1.242033 9.075567 20 16 21
1.800076 1.310213 9.192343 19 17 17
1.593820 1.337915 9.224269 23 131 213
0.236662 1.455536 9.493458 7 115 192
0.113368 1.568317 9.520203 14 12 12
0.301708 1.577394 9.462663 14 12 12
1.735018 1.630469 9.153309 14 14 28
1.652781 1.647422 9.128101 16 122 207
2.001998 1.705146 9.088006 19 19 31
0.535517 1.782845 9.414917 17 19 20
0.499862 1.834358 9.395214 78 118 137
0.601018 1.864809 9.382685 21 129 211
-0.050390 1.931244 9.504206 11 9 9
0.034381 1.938101 9.500041 10 8 8
0.374791 1.930196 9.419026 18 134 218
0.170452 1.948857 9.459567 11 10 14
0.447350 1.974550 9.392938 6 7 11
0.581939 1.982248 9.352336 11 10 12
-0.113170 2.147829 9.501007 132 127 128
0.536300 -1.934270 9.671509 31 72 27
0.827211 -1.767568 9.568353 27 105 172
1.435049 -1.636331 9.409058 23 20 42
1.872190 -1.613950 9.293825 26 20 45
1.093871 -1.654289 9.546582 33 36 198
1.349244 -1.560802 9.403226 15 110 179
1.857614 -1.478029 9.290599 24 18 35
2.126007 -1.477599 9.230610 25 19 38
2.613287 -1.449069 9.087546 8 117 215
3.578148 -1.355761 8.702277 24 125 223
1.577788 -1.430738 9.346953 27 19 42
2.883086 -1.349177 8.927178 25 18 23
2.553414 -1.360161 9.105601 18 16 16
1.635917 -1.326508 9.342864 0 44 156
1.573860 -1.136091 9.411294 24 130 213
1.710090 -1.062825 9.301875 0 47 117
0.596039 -1.088460 9.613602 17 14 16
1.776309 -0.990233 9.305352 30 135 216
2.157018 -0.887804 9.215594 20 17 19
0.766011 -0.869906 9.576690 18 18 24
0.045001 -0.858524 9.782651 35 19 136
1.567518 -0.765200 9.386604 69 135 206
1.752383 -0.530672 9.304097 27 133 218
1.538267 -0.440201 9.368530 33 92 164
2.129173 -0.424709 9.242399 19 15 20
0.628847 -0.380414 9.601264 13 131 220
1.830519 -0.106565 9.315791 18 17 21
1.771162 0.001353 9.295368 18 13 22
1.757412 0.172407 9.296697 14 13 22
1.678515 0.247446 9.289924 25 132 217
0.194759 0.399848 9.644251 17 14 16
0.413123 0.418951 9.586636 15 14 23
2.026292 0.716985 9.195901 20 16 21
1.702874 0.790628 9.270365 14 14 20
1.703188 1.312050 9.240723 16 15 19
0.526617 1.769713 9.434500 15 18 23
-0.018066 1.914680 9.489158 13 8 9
0.568700 1.966011 9.371719 12 11 13
0.842431 1.981713 9.306112 11 8 17
-1.566810 3.657979 11.909382 144 152 165
-0.488725 3.287302 10.408226 38 31 58
0.959550 -2.002771 9.547820 22 21 23
0.398283 -0.356830 9.686834 21 116 195
1.746358 1.669766 9.163817 14 18 29
0.802916 -1.924302 9.570214 56 113 182
0.495465 -1.867413 9.619246 24 101 174
0.956608 -1.792253 9.528090 17 19 29
1.186685 -1.431247 9.480163 22 17 38
2.239718 -1.366542 9.212273 22 20 20
1.695006 -1.247286 9.300918 60 44 122
3.587092 -0.891669 8.735336 10 28 87
2.043818 -0.886711 9.228086 48 121 212
1.910584 -0.823937 9.312022 21 17 22
0.368052 -0.349039 9.659878 15 114 188
0.657882 -0.146604 9.501617 18 18 24
1.858742 -0.140096 9.323649 12 12 12
0.474050 -0.076450 9.639343 18 14 19
2.126479 -0.021679 9.330839 18 16 16
0.594819 -0.002072 9.588022 12 111 191
1.769915 -0.001140 9.296567 20 15 24
0.213288 0.220821 9.682416 15 13 13
0.319080 0.350691 9.595127 32 138 215
1.876712 0.341011 9.227304 52 121 178
0.393029 0.620174 9.615489 14 12 11
1.704428 0.788990 9.267583 14 14 20
1.597734 0.880051 9.240448 21 133 217
1.579522 1.079668 9.217306 25 132 217
1.668535 1.188399 9.236982 15 13 19
1.536976 1.474697 9.178895 22 129 214
0.918995 1.906216 9.297026 21 128 209
-0.059809 2.035537 9.451360 137 132 134
0.367281 2.035133 9.435741 135 132 134
1.578890 1.949369 9.089215 22 130 207
-0.067517 2.123424 9.478363 134 129 131
0.808405 -1.905144 9.623705 51 113 183
0.355192 -1.728514 9.690950 20 15 16
0.994951 -1.614671 9.516026 24 37 193
0.300504 -0.936227 9.663075 17 14 16
0.671318 -0.559119 9.576744 19 18 22
0.477014 -0.498869 9.641965 17 14 16
0.233975 -0.156663 9.650070 16 13 15
1.853533 0.175563 9.283864 20 16 21
0.170786 0.570533 9.606793 14 12 12
0.144586 0.932544 9.581556 15 11 10
1.685345 1.516934 9.189671 18 14 19
0.691521 -0.948049 9.650279 19 16 18
1.367810 -1.503304 9.440142 63 111 183
0.369113 -1.372751 9.631197 18 16 16
0.332150 -0.948479 9.680700 18 15 17
0.794154 -0.371838 9.550513 19 125 208
0.571438 0.231681 9.557713 13 13 19
0.437168 0.954691 9.506099 18 13 15
0.714544 1.763508 9.415058 18 126 208
0.402813 1.848482 9.482256 15 10 11
1.807239 2.042881 9.196014 13 15 16
1.425248 3.075395 9.853417 19 11 64
0.623772 -0.314479 9.499883 36 132 215
0.446054 0.146422 9.509065 120 124 142
2.224261 -1.673097 9.227142 100 142 189
1.940547 -1.484607 9.283383 39 132 207
2.550165 -1.451843 9.141004 28 16 52
2.020765 -1.443225 9.258532 20 14 19
4.346500 -1.342527 8.677596 18 9 59
1.252235 -1.439809 9.430459 13 0 82
4.373710 -1.293227 8.669937 37 147 229
1.329306 -1.356612 9.404677 35 36 110
1.913943 -1.174948 9.259768 100 168 227
2.190488 -1.159216 9.198151 86 165 228
2.451541 -1.140408 9.135880 69 113 166
4.104025 -0.844243 8.648061 88 133 194
2.628635 -0.825419 9.076324 0 5 14
0.378229 0.114795 9.523168 82 125 192
6.949343 0.478738 8.032875 4 37 106
0.165241 1.558569 9.504957 45 132 198
0.527782 1.954242 9.425712 37 121 56
3.332670 -1.718091 8.980811 61 72 100
1.816684 -1.577492 9.312603 41 145 216
2.065089 -1.557039 9.255372 63 150 216
2.925680 -1.442261 9.041084 25 133 228
3.061071 -1.431515 9.014332 22 132 227
1.962877 -1.461343 9.270234 21 15 34
4.136967 -1.365806 8.736620 27 11 72
2.646574 -1.407170 9.099107 8 19 63
4.568706 -1.321949 8.618735 73 84 235
2.052018 -1.390007 9.246772 49 132 218
2.571837 -1.255557 9.114052 79 124 168
4.008687 0.101398 8.205932 22 21 25
3.934733 0.170239 8.113482 19 16 18
0.537729 1.909468 9.426303 17 30 14
0.643865 1.977556 9.402987 36 132 208
1.382316 2.106436 9.269727 7 9 9
1.644796 -1.532221 9.346949 21 18 44
4.138597 -1.369315 8.734599 28 19 45
2.315763 -1.371232 9.200694 121 146 196
1.990780 -1.367639 9.259319 22 19 14
1.831815 -1.322458 9.288119 53 144 219
2.374834 -1.270939 9.163701 32 110 181
1.735724 -1.274734 9.310181 79 158 225
1.770361 -1.229491 9.302773 23 18 39
1.780886 -0.669302 9.263775 46 140 216
0.778564 1.989874 9.379042 84 121 243
0.587495 2.009693 9.413680 8 10 11
5.002733 -1.311480 8.529448 35 24 50
4.629788 -1.321700 8.620617 37 24 46
2.561165 -1.373897 9.119328 22 19 15
0.586344 1.955612 9.415215 11 10 12
2.989336 -1.422752 9.025048 21 127 220
2.671307 -1.113670 9.058682 95 147 200
3.959249 0.041830 8.234389 22 20 19
0.601998 -0.001280 9.483150 53 133 204
2.675723 -1.234515 9.084937 21 18 13
2.040221 -0.457232 9.174105 19 13 18
0.640140 1.829257 9.394826 38 140 215
3.993712 -0.137132 8.383229 11 7 19
2.015882 -1.165904 9.230304 163 183 230
6.960134 0.273687 7.704952 32 61 122
4.230812 2.178277 8.595685 40 82 153
6.141735 -1.277277 8.230147 21 113 216
6.155459 -1.098312 8.217825 26 22 21
6.920259 0.556939 7.441470 39 76 138
4.725333 3.052581 8.856656 21 8 24
5.939360 -1.206102 8.266537 32 102 215
2.137792 -1.423144 9.031993 24 23 27
5.770085 2.249241 8.446226 34 134 216
5.695134 -1.223238 8.335139 9 39 122
6.471690 -0.495603 8.165003 39 134 214
4.572556 3.111076 8.942662 103 98 99
6.023293 -1.212166 8.250718 26 133 218
6.502381 -0.443911 8.042603 38 133 213
0.913096 2.021475 9.228316 15 15 15
3.823147 2.526731 8.878007 134 125 122
1.882381 0.961867 8.994346 16 18 26
5.363519 -0.745147 8.373945 43 71 125
6.020746 2.034961 8.319947 45 80 130
6.677099 2.588475 8.239396 23 38 84
7.245626 2.720314 8.164722 13 14 12
6.136206 -1.283013 8.227679 27 67 196
5.613968 -1.248773 8.321981 60 100 165
6.898015 -1.063964 8.082548 27 23 89
7.054099 -1.020050 8.051370 22 75 192
6.680669 -0.922833 8.119074 30 28 98
6.464094 -0.891319 8.163044 39 43 156
6.453994 -0.790825 8.169392 34 90 191
4.143322 -0.186886 8.591046 50 68 115
4.240928 0.234454 8.581739 69 92 142
6.017694 2.036816 8.322425 45 80 130
6.579041 2.587071 8.241927 5 15 33
6.942355 2.622401 8.198542 6 17 31
7.006540 -1.307142 8.061174 43 67 133
5.462684 -1.303577 8.350244 24 22 41
6.968174 -1.019923 8.075850 24 76 196
6.601689 -1.051632 8.132220 18 84 203
7.013785 -0.938253 8.020535 20 78 197
6.548146 -0.977073 8.141896 18 74 193
6.459932 -0.783937 8.168419 23 91 198
5.338149 -0.746601 8.376479 47 78 133
