ply
        format ascii 1.0
        element vertex 2352
        property float x
        property float y
        property float z
        property uchar red
        property uchar green
        property uchar blue
        end_header
0.439894 -0.317796 10.674534 107 124 163
1.854882 -0.305427 10.278728 0 36 125
0.473026 -0.307465 10.653121 101 144 195
0.368572 -0.286323 10.697085 70 102 151
0.672360 -0.279679 10.598873 85 105 162
2.876698 -0.263755 9.961847 128 148 189
3.018737 -0.261689 9.888993 5 1 20
2.946769 -0.256860 9.914541 133 166 212
2.974440 -0.254881 9.907528 129 157 217
3.963366 -0.241176 9.607409 115 144 201
2.919443 -0.226948 9.911519 0 0 20
0.355101 -0.231927 10.694746 15 48 87
0.395044 -0.232150 10.668140 86 120 144
0.427038 -0.230393 10.652121 81 103 138
0.462217 -0.225300 10.655043 87 116 155
2.884214 -0.190993 9.949416 4 7 22
2.903141 -0.184322 9.925467 9 4 19
2.982444 -0.184286 9.898950 0 0 18
2.958773 -0.180547 9.891190 125 162 222
2.888684 -0.176252 9.931423 145 146 227
2.146589 -0.175435 10.187595 139 158 219
2.920722 -0.170941 9.911076 114 162 210
2.169285 -0.173172 10.163050 9 4 19
2.943108 -0.169536 9.905023 26 24 43
2.212852 -0.169024 10.147112 12 14 22
3.899112 -0.157465 9.616434 60 87 143
2.145339 -0.157557 10.178342 0 0 25
2.865722 -0.147315 9.918592 0 0 38
2.257221 -0.143909 10.133288 26 51 107
2.232678 -0.133238 10.148651 122 164 207
2.217330 -0.125124 10.157974 0 0 24
2.903370 -0.113349 9.920608 0 0 10
2.888526 -0.103365 9.925960 114 134 182
2.998563 -0.103805 9.896016 10 8 14
3.952534 -0.096811 9.599966 125 153 214
2.913104 -0.096082 9.913906 108 128 193
2.938638 -0.091284 9.897687 113 171 220
2.978995 -0.090363 9.886895 107 136 181
2.850247 -0.089438 9.935112 0 0 44
2.894867 -0.085546 9.927875 0 0 28
2.884474 -0.068687 9.919909 140 189 215
2.982288 -0.064869 9.888012 45 65 150
2.865661 -0.062492 9.912927 22 19 45
1.682287 -0.062772 10.330233 0 20 107
1.541524 -0.047351 10.363671 55 146 221
1.802755 -0.045930 10.262304 0 51 144
1.896996 -0.046767 10.270245 0 34 115
1.634011 -0.039939 10.335110 43 135 216
2.803593 -0.037057 9.945465 117 164 218
4.454563 -0.035866 9.446819 23 29 76
1.601828 -0.025404 10.343653 38 132 205
1.818873 -0.021961 10.274075 0 17 94
1.837544 -0.022730 10.275199 57 137 222
2.174691 -0.019128 10.174190 0 31 131
4.902760 -0.017396 9.349080 135 161 197
2.797446 -0.014016 9.970031 67 152 220
2.994906 -0.012766 9.872429 7 10 15
2.896925 -0.011252 9.921668 0 3 11
2.925383 -0.010148 9.915840 14 12 18
2.944671 -0.012009 9.893643 0 1 6
2.965095 -0.010332 9.888035 39 56 112
2.223584 -0.008430 10.152440 64 138 196
2.147947 -0.003042 10.165051 131 168 212
2.188839 -0.001940 10.146643 74 114 196
3.008206 -0.000493 9.876107 84 104 159
1.849089 0.003819 10.261148 11 53 128
2.754504 0.009662 9.983983 76 112 182
2.973068 0.007780 9.895362 6 5 44
3.188512 0.007430 9.829508 10 12 23
3.121324 0.010346 9.842713 130 184 231
1.885588 0.059982 10.155709 59 103 162
4.993241 0.018562 9.320333 105 117 183
2.962315 0.024667 9.878707 126 169 220
2.849553 0.027050 9.913194 4 0 48
3.102559 0.030408 9.843427 104 152 216
2.979786 0.035220 9.877017 0 0 38
3.019127 0.041367 9.871418 136 174 222
3.041755 0.046636 9.870820 22 20 32
2.165083 0.049664 10.158765 15 12 21
2.107747 0.055174 10.193647 67 130 86
2.777666 0.057517 9.948077 57 145 215
2.847976 0.057621 9.928596 1 0 9
2.180252 0.061216 10.152341 101 138 176
2.269100 0.060284 10.128579 2 9 12
2.251850 0.070540 10.126170 118 139 207
2.939168 0.066805 9.894902 0 2 10
2.966831 0.073637 9.888504 3 2 18
2.244956 0.087987 10.141397 12 40 87
2.148568 0.089446 10.164458 41 72 127
2.227335 0.091815 10.142532 122 171 215
2.160847 0.103143 10.158358 0 0 24
3.091564 0.099261 9.842183 129 162 208
2.243507 0.104635 10.115306 131 163 206
0.405379 0.112622 10.653760 110 153 216
4.004288 0.105756 9.566279 89 108 153
0.581308 0.123480 10.603264 2 0 8
4.436321 0.111691 9.428216 28 26 38
0.618639 0.129017 10.592466 8 1 8
1.663836 0.126988 10.308088 0 38 114
3.960183 0.118433 9.578655 10 19 53
0.300227 0.133529 10.677953 76 112 166
0.596601 0.140028 10.596983 108 137 188
1.573322 0.134369 10.351575 0 17 95
1.840487 0.139819 10.261437 0 46 124
0.315604 0.145544 10.669853 3 4 38
1.806615 0.147888 10.268816 0 18 99
1.625684 0.152991 10.329284 0 31 99
1.784563 0.158532 10.269998 31 136 217
2.201355 0.153395 10.142262 1 1 7
2.150159 0.156402 10.173424 0 1 19
2.184633 0.159662 10.147862 137 160 192
2.229739 0.159089 10.144568 0 0 12
2.280756 0.160169 10.112516 11 7 13
4.535741 0.153727 9.422026 137 166 211
0.353476 0.178856 10.662351 23 54 99
1.573627 0.172471 10.350162 0 28 110
1.658060 0.171493 10.315289 0 36 97
2.213541 0.169275 10.137603 92 146 199
0.263924 0.181475 10.693723 98 126 167
2.182606 0.177372 10.146844 4 9 34
0.443519 0.196523 10.633380 110 133 171
0.245830 0.200606 10.695753 97 111 140
2.145398 0.193406 10.161541 0 0 20
2.181945 0.195227 10.146697 136 173 211
5.031737 0.199774 9.299624 0 6 69
2.217824 0.202832 10.135594 0 0 22
2.261170 0.201776 10.121762 137 167 214
0.311331 0.215007 10.669909 0 0 24
0.406906 0.213156 10.649749 82 116 162
2.242853 0.208010 10.121111 0 0 29
4.487661 0.202234 9.442111 25 26 40
2.152900 0.253922 10.151561 123 158 192
2.182732 0.269098 10.152440 23 88 149
2.145653 0.284529 10.139091 75 149 213
5.041307 0.265352 9.327357 4 8 61
2.146137 0.446736 10.148212 3 8 9
2.159330 0.464480 10.132318 113 165 212
2.100439 0.472821 10.143987 16 11 26
2.123476 0.482269 10.147929 130 154 214
2.123014 0.499894 10.147773 0 1 38
0.272977 0.528607 10.666492 116 158 195
0.370740 0.525346 10.627947 105 126 154
0.347655 0.537248 10.640823 130 164 218
0.199925 0.547370 10.681832 53 79 115
0.369506 0.546931 10.636913 113 146 191
0.224527 0.551177 10.678457 28 38 92
0.427031 0.547751 10.617827 0 0 57
1.488065 0.547440 10.344204 31 122 207
0.443050 0.563387 10.619756 89 141 194
1.497658 0.566384 10.340706 0 1 70
1.461943 0.571416 10.351603 0 23 70
1.554221 0.568138 10.321716 0 0 37
1.433450 0.579881 10.362699 71 100 157
1.444899 0.580317 10.345724 105 142 192
1.483811 0.579520 10.341281 40 134 200
0.263524 0.604902 10.656722 27 55 115
1.563480 0.586747 10.322241 38 126 202
0.359185 0.613972 10.626042 114 140 176
1.535082 0.608191 10.327314 61 133 205
0.322883 0.631068 10.642021 98 124 170
2.110872 0.649488 10.106286 116 160 213
2.150543 0.656928 10.122799 118 159 214
2.091618 0.758908 10.153852 115 159 183
2.042170 0.778984 10.148728 82 132 100
2.087963 0.780738 10.158025 89 137 195
2.096504 0.796076 10.138002 0 0 44
1.605445 0.812321 10.270274 0 22 128
1.388903 0.819905 10.347812 0 54 148
1.653066 0.820447 10.275407 36 138 220
1.597417 0.825428 10.290989 46 131 211
1.400987 0.833049 10.340565 53 135 217
1.417555 0.834544 10.338800 0 24 106
1.634476 0.829275 10.274981 0 17 97
1.615407 0.831704 10.269656 51 148 222
1.683594 0.839658 10.259019 0 25 113
1.591616 0.849399 10.267724 40 136 206
1.643018 0.849290 10.269375 49 125 201
1.668557 0.851704 10.260810 54 136 218
1.796263 0.850138 10.225737 0 31 120
2.108199 0.839704 10.109222 2 3 13
1.632380 0.864850 10.266869 0 14 89
1.795528 0.875029 10.230679 0 22 106
1.740533 0.876407 10.215278 0 3 107
1.816408 0.878363 10.203820 0 17 90
2.086885 0.877250 10.123579 123 164 213
2.102757 0.891750 10.115117 0 5 45
0.323901 0.954566 10.609623 0 3 11
0.200922 0.974276 10.649464 109 137 172
0.273116 0.974494 10.625392 74 108 151
0.184719 0.984750 10.646787 0 0 18
0.324048 0.988636 10.618767 5 0 4
2.128971 0.977646 10.091003 73 119 183
2.293085 0.964659 10.062656 136 170 206
2.314963 0.959578 10.030334 10 12 20
2.307275 0.979965 10.027458 94 110 177
1.396225 1.019900 10.306977 0 24 121
1.548792 1.041972 10.276209 32 140 217
1.512639 1.047879 10.285515 0 23 98
1.381627 1.057253 10.325840 50 143 212
1.486723 1.052954 10.287972 66 110 171
1.435390 1.057589 10.310781 19 123 200
1.556121 1.064400 10.272782 0 8 71
1.694099 1.062261 10.228736 0 13 101
1.407100 1.078096 10.306569 41 139 217
1.432594 1.078682 10.321651 0 6 99
2.125404 1.054246 10.086578 89 136 222
1.647102 1.078954 10.282884 30 131 209
1.811690 1.067294 10.186642 0 29 98
1.705518 1.077151 10.231015 52 147 227
1.836646 1.070061 10.184891 2 21 64
1.778122 1.084088 10.201218 58 141 226
1.688729 1.089103 10.230935 9 56 130
1.821186 1.085750 10.178773 42 127 205
1.717412 1.092411 10.223619 0 23 100
1.740769 1.093583 10.209367 0 29 94
1.766513 1.102138 10.209385 0 22 96
2.143859 1.096439 10.085727 0 0 32
2.258947 1.092460 10.050611 99 123 175
2.295985 1.193621 10.016850 21 49 90
2.100346 1.234537 10.073243 5 9 10
1.529677 1.258449 10.257757 0 53 114
2.048502 1.238658 10.102245 0 0 19
2.180023 1.240400 10.047194 3 5 13
2.161646 1.246248 10.047131 123 155 184
1.716834 1.270632 10.199545 0 64 138
2.288359 1.250395 10.020540 13 8 17
1.573971 1.282482 10.240146 52 100 148
1.485464 1.296048 10.262474 0 34 94
1.686099 1.289239 10.207974 0 33 86
1.711042 1.289401 10.197897 0 20 81
2.081647 1.277062 10.081201 139 175 223
1.738475 1.301205 10.191480 0 11 59
1.682132 1.314751 10.206848 0 14 68
0.220085 1.379316 10.586463 74 108 151
0.314353 1.372313 10.558732 4 3 7
0.259507 1.380091 10.566504 85 121 157
0.293921 1.380368 10.560579 115 140 172
2.486198 1.301894 9.946421 105 135 194
0.313148 1.393593 10.542121 101 133 182
2.494645 1.314922 9.931933 0 0 24
2.004965 1.367340 10.103639 4 0 15
2.083354 1.367877 10.066823 0 0 7
1.949614 1.381657 10.112386 65 156 135
2.117060 1.392495 10.054206 24 28 57
2.260885 1.390458 10.019673 133 167 220
2.355640 1.403034 9.969398 89 109 156
2.497115 1.415533 9.919244 108 160 227
2.396880 1.432153 9.958753 29 30 64
2.440957 1.428842 9.940617 11 48 116
1.508810 1.479152 10.254626 0 18 122
2.469843 1.434667 9.941739 61 109 151
2.454221 1.445354 9.950582 0 0 25
1.577911 1.493955 10.214833 0 16 89
1.495422 1.502783 10.240065 0 35 106
1.511103 1.505880 10.236327 36 121 201
1.710939 1.501761 10.169000 0 17 91
1.899153 1.494266 10.111960 17 13 18
1.943195 1.494978 10.085703 89 156 171
1.575447 1.530688 10.230307 0 32 101
1.644940 1.532112 10.201108 0 17 94
1.684435 1.529296 10.166654 74 128 199
1.709876 1.537121 10.167786 0 24 108
2.007203 1.533406 10.078974 65 103 161
2.025877 1.546014 10.083510 0 0 30
1.471414 1.710428 10.193415 0 11 76
1.459528 1.724800 10.196837 46 132 208
1.613645 1.714022 10.143882 0 41 124
1.740197 1.714950 10.122346 0 17 95
0.120523 1.793117 10.560242 87 109 134
0.145431 1.796402 10.548726 78 128 174
1.869006 1.715964 10.080072 109 131 166
0.173722 1.799394 10.549629 105 134 165
1.602704 1.731438 10.152719 48 141 220
1.654510 1.729932 10.120313 0 19 93
1.973217 1.716899 10.029981 86 125 169
1.725402 1.741858 10.121565 0 14 89
0.254153 1.810752 10.514727 36 67 112
0.304620 1.813281 10.505423 111 144 193
1.864754 1.738501 10.062961 35 66 111
1.932569 1.825892 10.038388 70 87 130
2.140216 1.864993 9.977055 79 91 145
1.621637 1.938027 10.110863 0 15 105
1.438016 1.950574 10.175942 34 131 211
1.851990 1.942599 10.055980 0 42 130
0.555712 2.021522 10.416324 101 135 135
0.595828 2.025378 10.395696 90 145 148
1.683408 1.967675 10.063259 0 29 105
2.097757 1.960048 9.969545 0 38 112
1.866369 1.983005 10.039486 0 38 118
1.971870 1.988856 9.997946 0 36 110
2.202332 1.980146 9.929434 0 27 116
2.273755 1.985561 9.910070 0 16 99
0.111239 2.119128 10.528780 6 71 122
0.135577 3.145737 15.501522 54 166 208
0.271027 2.119482 10.468530 12 7 22
0.424898 2.148432 10.426406 0 41 95
0.561795 2.152406 10.394087 0 12 0
0.412918 2.160682 10.427494 72 134 194
0.870773 2.173633 10.297183 61 128 220
1.023489 2.207258 10.235055 17 42 92
1.158004 2.206475 10.196005 107 146 178
1.615748 2.212917 10.084827 63 89 59
1.434087 2.237602 10.132659 92 126 150
3.147646 2.132679 9.619971 20 62 145
3.415249 2.182266 9.546258 39 100 180
3.682829 2.164615 9.457360 87 146 215
3.871964 2.155506 9.415117 0 21 116
0.297378 -2.412224 10.712571 25 25 25
0.976485 -2.210553 10.534472 41 101 160
0.857464 -2.180032 10.575029 15 116 195
1.112296 -2.130401 10.487967 93 159 210
0.541996 -2.150996 10.683002 41 82 50
1.175535 -2.105074 10.520843 13 29 65
0.966305 -2.094455 10.511597 22 107 175
1.546860 -2.074642 10.398434 11 32 77
0.566817 -2.067080 10.691440 44 117 175
0.812993 -2.041998 10.590527 33 123 194
0.846271 -2.041224 10.580463 21 117 201
4.224941 -1.846235 9.577873 66 91 155
0.959789 -2.016805 10.547671 31 104 166
0.570291 -2.020798 10.664821 9 3 4
1.438350 -1.937005 10.434730 20 22 40
2.383470 -1.860507 10.110962 8 8 14
2.027641 -1.871087 10.215776 93 127 180
2.433542 -1.837192 10.118591 89 146 208
0.948573 -1.905046 10.552379 24 102 169
2.008609 -1.843982 10.229863 0 2 15
2.218911 -1.834938 10.169329 31 59 119
2.185854 -1.825091 10.174062 14 16 27
2.242867 -1.826241 10.173830 4 4 20
0.927654 -1.852357 10.572060 79 143 191
1.425335 -1.795234 10.405610 21 15 40
0.945064 -1.808380 10.566707 12 12 48
1.677902 -1.761973 10.336958 54 138 210
2.643345 -2.446558 14.399750 48 143 217
1.709329 -1.753294 10.325440 18 12 43
1.996687 -1.736351 10.227592 29 141 217
2.189305 -1.728159 10.177367 24 16 46
2.152095 -1.720843 10.173600 34 149 222
1.677590 -1.740248 10.332960 38 136 212
1.822592 -1.738516 10.303899 65 153 217
1.935668 -1.727533 10.263261 72 145 219
0.942363 -1.765813 10.564649 0 9 42
2.092980 -1.714185 10.225806 49 144 224
1.544881 -1.730093 10.370471 23 134 214
1.755093 -1.714618 10.308110 28 137 211
0.472645 -1.752546 10.709925 55 127 191
1.502506 -1.694874 10.379068 27 135 212
1.694622 -1.689564 10.340916 35 131 215
1.722467 -1.686624 10.320329 44 145 220
1.816943 -1.684184 10.291318 24 15 48
2.921782 -1.627144 9.940392 26 22 51
0.939978 -1.720781 10.554195 0 0 29
1.930785 -1.674536 10.257441 21 14 49
1.466224 -1.689070 10.379151 28 135 216
1.566839 -1.684600 10.374160 1 0 42
2.087724 -1.660035 10.208905 17 12 44
2.459379 -1.641055 10.111754 37 124 216
0.498124 -1.731777 10.692961 0 23 53
1.531932 -1.683384 10.380049 36 138 213
1.629560 -1.669720 10.319891 58 39 156
2.203061 -1.650391 10.179803 16 6 42
1.743540 -1.665158 10.293922 7 2 57
2.582713 -1.628487 10.063216 18 135 232
2.637226 -1.627422 10.056798 24 116 229
2.765923 -1.617587 10.020197 39 70 233
2.846842 -1.617820 9.997661 19 121 220
0.916566 -1.699368 10.583867 90 135 186
2.722076 -1.610806 10.023859 5 113 215
3.129393 -1.597989 9.931468 45 121 227
3.142460 -1.586016 9.876375 21 119 221
2.124854 -1.632776 10.201171 21 132 210
2.228163 -1.624958 10.184984 56 140 222
2.239290 -1.617102 10.142368 27 138 218
3.197181 -1.583075 9.898928 10 120 215
1.647067 -1.648401 10.344926 29 135 218
2.791635 -1.594762 10.019848 5 0 27
2.457612 -1.604761 10.125290 11 116 203
2.675689 -1.591756 10.049500 9 35 125
3.346567 -1.557925 9.814535 12 123 223
3.028795 -1.566875 9.901442 12 120 221
0.936517 -1.665130 10.568556 0 1 43
2.576217 -1.589457 10.060188 5 108 200
4.007786 -1.521887 9.619759 48 64 217
2.150495 -1.605105 10.194059 7 8 22
2.089565 -1.607213 10.220335 9 8 18
3.637658 -1.533473 9.734285 11 113 212
3.703895 -1.536126 9.736423 13 117 224
1.617972 -1.624559 10.356629 36 25 122
2.843691 -1.569979 9.996881 23 120 218
2.869601 -1.559834 9.970112 4 112 207
3.225218 -1.539146 9.845446 16 39 149
2.601979 -1.565053 10.042238 0 3 40
1.552158 -1.614595 10.381179 18 11 46
3.101867 -1.543504 9.913421 14 114 210
3.313897 -1.535712 9.853768 6 23 116
3.975371 -1.498743 9.620785 20 130 220
1.673021 -1.603489 10.327963 14 7 52
3.276296 -1.529392 9.854142 21 113 216
1.512311 -1.603681 10.383304 32 137 211
2.115495 -1.580059 10.215885 28 131 223
2.129762 -1.579192 10.208071 26 136 226
1.640840 -1.594714 10.341751 43 142 222
1.600827 -1.595733 10.348544 43 147 212
1.818384 -1.579896 10.302745 31 136 217
2.251283 -1.565398 10.188269 47 149 214
1.834067 -1.574234 10.277601 29 141 211
2.019809 -1.568609 10.231941 29 142 215
2.332657 -1.556012 10.148805 31 144 231
2.343969 -1.553953 10.129292 32 138 223
3.628276 -1.487506 9.698146 9 106 204
0.819280 -1.616929 10.584455 20 119 193
1.936098 -1.569827 10.274283 32 135 214
0.930817 -1.613630 10.573254 32 49 92
1.948559 -1.562402 10.237144 31 139 220
3.829695 -1.479050 9.683591 13 113 209
3.849423 -1.474311 9.657207 25 123 217
0.957064 -1.601570 10.549949 26 112 212
2.651348 -1.525633 10.031787 16 10 15
1.663808 -1.559533 10.331134 22 13 46
3.951000 -1.463704 9.638500 96 146 222
2.112347 -1.540986 10.220457 37 134 224
2.131870 -1.535475 10.187420 18 134 223
0.907768 -1.589512 10.567180 63 98 148
1.856950 -1.544822 10.279861 18 14 39
1.746131 -1.544108 10.324412 17 5 41
2.538474 -1.510082 10.090473 109 144 194
1.447817 -1.551803 10.405088 78 150 222
1.783496 -1.538461 10.305884 27 16 49
2.330149 -1.517009 10.152689 16 126 221
0.176225 -1.608354 10.795883 14 12 12
1.625234 -1.528815 10.351213 60 149 229
1.578667 -1.530415 10.367710 60 154 230
1.722235 -1.526006 10.327316 42 127 195
2.711109 -1.480354 10.027183 0 3 18
1.652368 -1.521699 10.342128 44 126 204
1.452136 -1.525118 10.396454 67 145 221
1.927872 -1.506439 10.264749 39 136 210
0.906874 -1.542999 10.558148 30 74 135
1.545397 -1.510771 10.368242 4 0 50
1.405104 -1.514430 10.409580 47 150 223
1.593020 -1.501329 10.356029 64 39 153
1.519318 -1.495796 10.370645 64 147 225
2.052183 -1.475618 10.214931 18 17 26
0.923148 -1.514365 10.545141 20 46 83
0.950718 -1.514091 10.538393 23 123 212
1.652177 -1.487695 10.341054 72 139 214
2.136493 -1.455405 10.211207 111 149 161
2.578488 -1.426688 10.050093 14 12 12
2.403061 -1.432543 10.127492 100 156 221
1.621631 -1.459837 10.345594 65 147 228
2.350838 -1.429105 10.135863 96 131 171
1.456931 -1.462533 10.395849 0 0 18
1.655141 -1.447412 10.322906 0 0 43
1.711327 -1.444079 10.324989 13 6 41
1.855813 -1.432351 10.291655 22 2 55
1.491503 -1.442863 10.376680 24 87 185
2.818668 -1.387024 9.981449 90 134 195
0.920756 -1.463267 10.562570 22 44 92
2.349265 -1.407996 10.151242 0 12 87
2.771427 -1.390364 10.026927 32 78 156
1.676529 -1.424396 10.327806 74 149 225
1.737729 -1.422905 10.315154 62 146 211
1.908535 -1.407442 10.268786 64 156 229
1.986676 -1.401451 10.253653 88 150 228
2.793278 -1.346900 9.992796 0 0 18
1.443147 -1.344750 10.409132 46 138 209
2.506270 -1.282533 10.077081 16 122 210
2.669746 -1.280120 10.052642 4 0 10
2.714171 -1.274692 10.013198 0 4 5
0.508107 -1.341414 10.583303 40 123 55
2.403050 -1.277888 10.114065 69 167 237
3.007518 -1.245279 9.913567 19 15 26
2.689850 -1.256806 10.038430 92 142 208
0.492296 -1.330025 10.681441 0 39 0
2.640815 -1.245104 10.064187 52 84 155
1.368886 -1.291107 10.449312 1 12 50
2.508893 -1.241753 10.079421 13 120 211
2.746181 -1.231434 9.984288 5 52 120
3.372025 -1.206027 9.807824 23 16 23
0.518056 -1.309586 10.687960 57 143 189
3.242894 -1.197033 9.854358 112 136 188
1.335904 -1.254928 10.438872 38 149 219
0.400316 -1.275292 10.724037 17 13 12
1.383171 -1.226326 10.424829 14 50 20
0.458632 -1.238456 10.685015 13 12 14
0.551149 -1.225365 10.663510 37 129 202
0.426524 -1.210653 10.696565 64 152 212
0.742599 -1.198893 10.608811 38 133 206
0.784533 -1.196146 10.597437 27 127 205
1.375842 -1.124525 10.434808 10 46 30
0.453504 -1.153055 10.706410 85 124 169
2.853002 -1.074019 9.979823 90 136 184
0.764445 -1.141958 10.637314 16 12 17
2.276413 -1.081771 10.155648 89 156 211
2.372113 -1.076349 10.107167 19 43 115
2.887107 -1.050982 9.978276 0 6 43
3.949454 -1.013575 9.633593 26 19 32
2.860608 -0.973455 9.942307 53 94 173
2.296005 -0.984628 10.139191 69 118 234
1.993759 -0.984951 10.240557 14 115 201
2.241686 -0.972272 10.163919 45 108 212
2.296576 -0.960029 10.129045 82 155 229
2.930689 -0.931520 9.942164 93 131 195
0.124482 -0.988726 10.802695 34 13 98
2.236112 -0.894505 10.162513 124 160 196
3.949831 -0.848343 9.625152 29 53 111
2.941159 -0.855399 9.926855 93 142 198
1.983960 -0.866293 10.227653 16 122 205
1.648078 -0.863616 10.343975 22 132 214
2.679563 -0.807479 9.938919 84 131 182
2.879145 -0.828697 9.974904 17 15 37
2.847652 -0.803900 9.954965 7 114 212
0.455720 -0.841672 10.672850 34 140 217
2.161161 -0.800990 10.168980 67 170 225
0.483058 -0.838048 10.675121 34 136 219
0.416133 -0.828550 10.703439 68 144 226
2.850335 -0.763792 9.959280 0 109 209
0.502086 -0.803612 10.679259 8 9 29
2.147424 -0.767995 10.209056 47 141 217
0.463801 -0.799805 10.673522 51 143 214
1.980154 -0.769622 10.261152 33 135 217
2.155067 -0.761244 10.148252 10 126 203
2.870446 -0.735616 9.962212 23 17 48
2.691554 -0.738448 10.029207 79 120 165
2.829612 -0.720873 9.985128 14 117 210
1.526599 -0.741668 10.386287 0 35 116
0.347592 -0.764016 10.735257 16 9 16
0.408402 -0.757704 10.678115 5 5 11
0.456658 -0.754534 10.670952 23 22 24
3.930426 -0.674594 9.599224 45 66 127
2.193480 -0.713510 10.185068 10 13 21
2.255944 -0.705385 10.155831 0 0 9
1.951461 -0.702505 10.252476 52 103 173
2.166115 -0.692922 10.176897 19 90 153
3.032879 -0.672888 9.889150 82 121 190
2.164736 -0.673019 10.177215 13 104 171
0.723248 -0.699850 10.601972 106 123 179
1.635124 -0.681524 10.340141 71 116 189
0.668578 -0.678931 10.618423 0 0 11
2.134948 -0.609209 10.217668 28 144 233
2.150572 -0.606030 10.184867 30 141 233
2.922169 -0.590597 9.926985 110 143 206
3.097686 -0.581326 9.872948 86 126 185
2.130211 -0.568948 10.211613 29 141 231
4.010257 -0.534318 9.612784 16 14 20
2.227500 -0.552986 10.140276 0 0 21
4.107510 -0.504085 9.574260 68 100 159
2.924252 -0.510134 9.936423 105 165 224
1.955771 -0.514026 10.238777 19 121 203
2.127030 -0.510572 10.220901 42 141 227
2.901847 -0.492402 9.947893 0 0 29
2.142418 -0.467014 10.178223 17 136 229
2.264610 -0.464683 10.149111 52 109 161
0.725640 -0.485730 10.603363 42 130 214
2.863204 -0.455786 9.971747 0 0 10
2.893289 -0.434932 9.923384 95 126 195
4.055588 -0.415988 9.579518 40 88 136
0.744048 -0.456462 10.596077 0 1 34
2.928469 -0.425694 9.928023 16 55 134
0.721940 -0.438285 10.598248 20 118 188
1.949550 -0.415674 10.255404 27 126 210
2.855232 -0.402483 9.951677 12 8 20
0.377294 -0.421340 10.700958 54 141 208
2.842144 -0.390906 9.965804 8 8 22
0.447837 -0.415096 10.684214 44 146 218
2.113158 -0.386832 10.207952 80 158 224
2.345363 -0.379043 10.119832 15 83 156
4.040916 -0.359577 9.577244 8 7 9
1.947838 -0.375308 10.250044 17 122 203
0.373581 -0.376212 10.680250 39 140 215
5.736953 -0.326343 9.320248 19 29 83
0.444546 -0.371101 10.657513 45 143 219
0.484838 -0.368415 10.662983 14 115 194
2.972453 -0.340573 9.913280 124 172 224
1.962079 -0.349219 10.253207 23 32 66
0.715452 -0.355734 10.601896 54 152 224
2.879902 -0.328859 9.939735 114 152 217
4.429732 -0.301915 9.432375 45 70 126
3.000858 -0.310065 9.909046 0 0 33
0.388845 -0.304609 10.677985 16 92 168
2.235270 -0.287823 10.154736 83 156 218
2.396555 -0.276022 10.091527 78 99 160
0.432704 -0.287263 10.676099 2 38 92
0.709890 -0.268877 10.595928 60 85 129
2.432694 -0.258343 10.100892 51 75 127
2.210555 -0.256068 10.165703 5 12 27
3.002408 -0.240459 9.912942 62 97 170
0.381461 -0.254454 10.676294 15 11 16
2.900149 -0.228616 9.942461 0 4 23
3.026479 -0.220178 9.869029 9 17 54
0.392404 -0.219861 10.680399 66 94 141
0.360815 -0.207310 10.698013 13 10 19
0.427011 -0.200114 10.673879 8 4 10
5.065948 -0.164640 9.349497 123 150 200
2.303813 -0.161824 10.127817 20 21 25
2.165750 -0.153096 10.162154 14 60 107
2.281556 -0.150818 10.141070 45 57 115
2.890666 -0.139008 9.920425 21 13 30
2.322616 -0.137100 10.114084 123 159 243
2.177055 -0.128623 10.158418 0 0 34
0.688497 -0.071813 10.590558 61 146 218
1.915703 -0.064949 10.239599 19 125 208
2.745967 -0.062255 9.966839 24 20 25
2.818623 -0.059403 9.960963 4 0 12
2.156467 -0.051276 10.173948 5 4 14
2.204967 -0.049365 10.148454 5 5 11
2.830930 -0.037599 9.954721 6 5 14
0.326443 -0.014933 10.671681 10 122 206
2.092145 -0.013641 10.187987 45 68 46
0.372752 -0.012855 10.663057 47 139 210
2.237814 -0.006639 10.128515 0 49 129
2.049675 -0.003301 10.128201 110 142 207
3.148814 0.002965 9.855376 34 31 40
2.953331 0.009290 9.900073 37 81 145
2.917242 0.031339 9.818763 7 11 52
2.809815 0.036994 10.002910 23 19 30
0.294188 0.041994 10.695507 40 140 212
1.908763 0.040898 10.243484 24 122 206
3.076372 0.040230 9.858237 8 12 41
0.447940 0.055073 10.652442 35 148 221
2.880383 0.059889 9.917362 9 10 20
0.634165 0.069759 10.612411 29 117 193
2.286682 0.085609 10.100839 40 134 200
0.346698 0.090375 10.677599 2 0 8
0.391722 0.090073 10.647038 0 0 4
0.256373 0.113538 10.704998 41 103 167
0.320646 0.115032 10.688919 65 123 182
1.902399 0.124140 10.255620 25 129 212
0.568359 0.141317 10.622511 80 119 157
4.688853 0.129097 9.408394 33 30 45
0.382603 0.150623 10.648080 73 80 129
3.917480 0.147689 9.584839 33 28 43
0.599625 0.168866 10.616772 1 5 23
2.077387 0.163390 10.199057 76 136 95
3.769742 0.154092 9.616561 76 117 180
0.397946 0.174105 10.660990 9 8 18
0.367544 0.188386 10.667781 0 60 125
1.834793 0.193572 10.266950 23 58 126
5.032131 0.178579 9.335356 119 139 196
4.048046 0.186915 9.555330 39 73 127
1.895548 0.205959 10.332083 21 59 117
4.384122 0.194338 9.412683 39 31 42
0.443271 0.227786 10.653512 1 0 10
4.380970 0.219390 9.446744 127 151 209
2.174394 0.244958 10.148423 6 7 17
4.543380 0.226594 9.383050 45 78 128
2.133912 0.267515 10.177176 76 130 183
2.104099 0.339695 10.171723 16 15 17
2.164748 0.346098 10.126266 0 1 5
2.041185 0.353332 10.198232 98 155 200
0.301212 0.380998 10.678410 40 147 221
2.130818 0.382522 10.174547 65 124 193
0.297235 0.431992 10.661131 36 142 219
0.295679 0.515337 10.654645 8 4 10
0.389287 0.514989 10.612100 5 7 15
0.340879 0.579685 10.657483 0 0 16
0.280305 0.612922 10.660599 15 57 116
0.327634 0.623684 10.644219 0 0 46
0.358674 0.646700 10.650534 7 10 14
2.104819 0.675410 10.140896 107 163 192
2.130287 0.699161 10.129061 12 9 35
0.267515 0.744013 10.646227 39 143 214
0.366122 0.778652 10.613525 36 145 223
2.008539 0.758197 10.169134 56 106 42
1.468663 0.834182 10.319292 30 128 216
2.210425 0.845456 10.072062 21 17 29
0.279388 0.948272 10.636379 2 0 0
2.334036 0.893704 10.043120 39 38 112
0.242576 0.969708 10.631453 29 54 98
0.301831 0.969296 10.625639 2 30 94
0.220749 0.987679 10.639313 0 0 7
2.257067 0.953780 10.064343 17 14 16
1.820707 1.042269 10.184708 24 120 203
1.622974 1.063777 10.257012 10 78 151
1.646201 1.064811 10.251163 36 141 222
1.999102 1.058376 10.104437 86 165 216
2.313476 1.089479 10.032679 93 114 166
2.058567 1.151191 10.098322 126 165 209
1.975823 1.159879 10.145634 103 160 216
1.990686 1.157298 10.101586 93 160 215
1.973821 1.265425 10.120439 87 189 164
2.329220 1.254846 10.010841 29 28 30
2.194505 1.264109 10.045224 35 73 137
2.243659 1.271317 10.031515 96 148 214
2.508611 1.272914 9.931535 23 16 31
0.193017 1.380254 10.591169 81 115 151
2.319366 1.304567 10.002973 14 13 17
2.416320 1.310774 9.969355 11 13 21
0.252604 1.392351 10.568034 30 58 105
2.008675 1.381018 10.057640 115 180 224
2.150642 1.392146 10.044309 11 51 116
2.511318 1.426611 9.908942 117 152 220
1.776579 1.489586 10.139354 14 122 204
2.024170 1.483706 10.047918 18 17 26
0.280254 1.729717 10.532731 10 121 193
0.199090 1.782611 10.545749 0 0 4
0.267934 1.784326 10.515527 13 9 14
1.914631 1.718459 10.046522 52 74 116
1.957342 1.741353 10.042132 72 102 151
1.738720 1.765661 10.121186 24 125 203
1.817517 1.766278 10.086702 0 0 14
1.980265 1.831340 10.023248 58 76 123
1.995776 1.866531 10.000837 13 15 33
0.569240 2.040146 10.399853 15 32 11
0.135899 2.104439 10.528264 55 159 218
0.398260 2.130330 10.447401 32 126 221
1.048849 2.144104 10.247257 0 0 8
0.328026 2.202704 10.474571 8 7 9
0.491678 2.213374 10.414364 4 0 5
0.631302 2.218875 10.348536 9 7 7
1.673323 2.181514 10.054395 0 0 9
1.757595 2.223101 10.042814 45 52 115
-0.143508 2.364711 10.538176 197 194 216
1.753630 2.257107 10.033062 30 42 106
1.888173 2.263814 10.002729 56 78 156
1.689759 3.584882 11.085661 115 107 114
1.733947 3.583924 11.068745 128 121 124
2.070679 3.980175 9.080990 109 115 114
0.273811 3.797999 8.420195 88 87 83
2.528790 4.571498 10.085446 104 110 117
0.945403 3.594913 7.803056 192 187 186
1.603617 -1.906157 10.410085 78 106 160
1.428664 -1.602505 10.402808 30 26 101
2.962849 -1.192373 9.950391 14 19 52
0.726076 -1.116186 10.613163 37 58 103
2.104781 1.281472 10.036568 38 41 72
0.828876 -2.179831 10.587591 23 118 192
1.177270 -2.104961 10.516088 13 29 65
0.964380 -2.097515 10.552736 19 107 177
2.271895 -2.018724 10.192556 38 64 124
0.542372 -2.108629 10.660012 15 13 13
2.341967 -2.003755 10.168319 54 70 116
2.564386 -1.970358 10.089086 34 58 100
0.984873 -2.054950 10.542211 9 16 41
0.572430 -2.020973 10.666227 7 2 1
0.850805 -2.006263 10.586827 12 12 24
0.493191 -1.992239 10.683034 31 45 98
0.814036 -1.971972 10.617881 77 103 149
1.964858 -1.895747 10.258887 118 153 203
1.909356 -1.891183 10.258516 110 143 192
2.384089 -1.863073 10.114303 10 13 18
1.945627 -1.882556 10.240461 111 156 200
2.027607 -1.876830 10.238733 93 127 180
2.153969 -1.871885 10.203029 96 134 188
1.606564 -1.890814 10.321213 77 103 169
2.332564 -1.852064 10.129827 117 169 216
2.348417 -1.854026 10.148936 118 149 212
1.987090 -1.865080 10.236146 122 162 215
2.466474 -1.835575 10.077665 107 161 222
0.985845 -1.918045 10.545735 19 21 32
2.220335 -1.841473 10.166099 67 107 165
1.955512 -1.848179 10.235275 25 27 35
2.724518 -1.807226 10.015753 65 70 119
1.079741 -1.873110 10.541757 0 100 197
0.893787 -1.872110 10.588630 16 23 26
0.925615 -1.847633 10.570537 79 133 186
1.420555 -1.795804 10.398698 18 19 39
1.921558 -1.757147 10.263910 24 18 41
1.390974 -1.773361 10.428375 33 127 203
2.191832 -1.735817 10.190143 21 20 46
1.614230 -1.756047 10.349496 29 140 210
1.874957 -1.745576 10.271324 36 142 219
1.990150 -1.735516 10.240766 31 146 221
1.741793 -1.747632 10.316172 32 149 224
2.145915 -1.715411 10.169962 27 142 222
0.793606 -1.758855 10.600365 31 129 205
2.480150 -1.670310 10.080794 23 15 46
2.590052 -1.667639 10.082058 23 18 45
1.814572 -1.696479 10.291934 13 5 82
1.930389 -1.684105 10.245042 19 8 94
2.721717 -1.653720 10.040606 27 13 49
1.907380 -1.689658 10.275300 8 1 36
2.085826 -1.667730 10.193277 0 0 73
1.692333 -1.688151 10.330551 38 139 218
2.926824 -1.632763 9.965445 15 12 44
2.178386 -1.664528 10.191792 18 13 42
2.201229 -1.663678 10.192933 16 15 109
2.449984 -1.646482 10.111604 66 124 237
2.642277 -1.631236 10.037354 21 121 227
1.528935 -1.684235 10.376190 43 142 216
1.750776 -1.669418 10.312007 3 0 45
2.863627 -1.624613 10.034565 30 125 229
1.630062 -1.671513 10.329702 58 39 156
2.757123 -1.619555 10.022458 36 69 232
2.234988 -1.628632 10.178696 21 139 218
3.206039 -1.585338 9.909524 11 120 218
3.419087 -1.564103 9.799389 14 121 218
1.648196 -1.647648 10.348885 29 135 218
3.340052 -1.565979 9.829474 9 120 220
3.022706 -1.572231 9.923026 7 115 216
0.936973 -1.666033 10.570963 0 1 43
2.636573 -1.589079 10.066922 21 118 208
2.711710 -1.584385 10.030789 8 118 214
3.712449 -1.539871 9.746451 19 119 225
0.998743 -1.661060 10.562205 28 31 193
1.354221 -1.636086 10.428377 39 135 211
2.088485 -1.603951 10.208435 13 10 19
2.855341 -1.571447 10.001038 4 116 212
1.615907 -1.624337 10.359477 55 39 150
2.002067 -1.606199 10.244647 19 16 41
0.479512 -1.670622 10.693364 38 115 184
3.107391 -1.539346 9.866202 4 114 210
3.969713 -1.501792 9.615582 28 138 233
0.561773 -1.661049 10.682262 44 101 153
2.600927 -1.562129 10.038065 4 10 29
2.669926 -1.556353 10.024861 8 11 25
2.295699 -1.574268 10.149494 11 9 21
2.906911 -1.550190 10.005099 4 8 61
4.165538 -1.489037 9.555998 43 146 233
0.519296 -1.653514 10.697602 31 119 190
2.122164 -1.572624 10.196284 24 137 223
2.391379 -1.562884 10.135503 14 15 25
1.827165 -1.582563 10.294270 33 141 223
2.735729 -1.536771 10.007786 16 14 14
0.782838 -1.624846 10.601927 34 130 206
0.815200 -1.622277 10.589713 29 127 203
2.020980 -1.565563 10.227338 37 146 224
2.251530 -1.559374 10.173556 49 144 213
1.427806 -1.591127 10.408193 34 30 89
1.943090 -1.571498 10.261583 36 142 225
2.338030 -1.547825 10.120955 16 135 221
1.568661 -1.574054 10.379583 23 14 40
1.670065 -1.561818 10.320378 22 15 42
4.595724 -1.430443 9.431542 29 49 210
2.121647 -1.541414 10.198921 14 134 223
2.709635 -1.515886 10.027574 0 11 69
1.862075 -1.547677 10.280033 30 15 47
4.196972 -1.452554 9.594529 36 135 221
1.986185 -1.541820 10.255749 21 12 39
0.498969 -1.602362 10.675920 7 9 10
1.900556 -1.539290 10.268414 22 11 44
2.250597 -1.528672 10.172440 42 133 232
1.785135 -1.540675 10.302257 21 16 45
2.050345 -1.530595 10.230996 24 18 35
2.336776 -1.519508 10.137493 18 133 224
2.675052 -1.495508 10.005003 83 107 159
2.745701 -1.498411 10.031339 43 68 124
1.515575 -1.540218 10.387683 37 143 220
1.448728 -1.534269 10.394752 47 130 215
2.708340 -1.475904 10.018572 13 11 17
4.464988 -1.403883 9.509848 0 4 49
1.927021 -1.500612 10.258163 71 157 239
0.703578 -1.549916 10.616672 65 92 129
0.776187 -1.547728 10.607110 90 113 159
0.900513 -1.544146 10.564460 53 89 135
1.990764 -1.491267 10.240969 21 14 47
0.873758 -1.521935 10.587976 0 0 11
1.893524 -1.476455 10.249083 23 14 54
0.956572 -1.513665 10.540231 16 123 208
1.799655 -1.480318 10.321993 54 152 230
1.696959 -1.480219 10.335272 47 152 225
1.845710 -1.473445 10.286386 59 152 227
2.580037 -1.427477 10.056421 14 12 12
2.402460 -1.430725 10.124092 26 108 186
2.189920 -1.438995 10.186070 2 43 75
2.791238 -1.409865 9.988721 24 20 25
1.657040 -1.450836 10.333609 6 3 72
1.713068 -1.448067 10.324966 22 7 69
1.972203 -1.431839 10.232212 20 12 53
2.348969 -1.418415 10.146578 92 114 180
1.488638 -1.448330 10.382156 24 82 171
1.880118 -1.434693 10.274101 23 17 42
2.027608 -1.422741 10.230349 16 15 71
1.618434 -1.435236 10.349043 48 140 219
1.789005 -1.428196 10.305154 11 65 152
2.765396 -1.383132 10.016553 62 110 162
1.676514 -1.423633 10.328110 74 149 225
1.908285 -1.404903 10.263720 64 156 229
0.757962 -1.336325 10.604634 21 131 207
2.013058 -1.285624 10.232669 39 136 216
3.065241 -1.241228 9.913780 20 18 24
2.689745 -1.250358 10.021231 116 153 221
2.641519 -1.251399 10.053243 38 74 144
2.744512 -1.242280 10.004154 28 80 156
1.363479 -1.290253 10.441567 14 25 63
2.495493 -1.245339 10.075019 8 122 213
2.929581 -1.226658 9.934801 85 146 212
2.978580 -1.219821 9.922243 54 104 176
3.391196 -1.213550 9.853497 18 17 26
0.518439 -1.305915 10.669198 48 140 205
1.304706 -1.285082 10.481066 0 48 15
3.028629 -1.217111 9.927276 26 81 138
2.908786 -1.199212 9.953274 0 0 16
0.395187 -1.279392 10.725714 15 14 10
0.572542 -1.267042 10.661663 39 130 205
3.778338 -1.139857 9.621477 54 106 176
0.551179 -1.230520 10.667066 22 122 200
0.462914 -1.228588 10.690893 12 14 14
1.834346 -1.166596 10.284785 0 18 85
1.934334 -1.152004 10.265357 39 91 162
0.462058 -1.193127 10.673397 15 13 19
0.482563 -1.177535 10.692221 16 11 12
2.906342 -1.082215 9.964245 115 152 208
0.763044 -1.153129 10.646351 11 12 22
2.852207 -1.077975 9.973504 109 151 198
0.509183 -1.142794 10.672580 68 127 196
0.839567 -1.125799 10.612890 10 11 21
2.222501 -1.077599 10.172651 38 60 155
0.863619 -1.092674 10.577570 65 102 154
2.298161 -1.036919 10.135829 0 0 9
1.991872 -1.045432 10.223548 29 134 215
3.923048 -0.984332 9.632922 94 138 197
4.022719 -0.979116 9.608687 37 82 139
1.631349 -1.040495 10.344935 19 85 168
0.858296 -1.042269 10.578988 45 88 145
2.213527 -1.004343 10.181472 10 17 12
2.859979 -0.973441 9.977973 41 85 168
2.297688 -0.977321 10.148231 64 133 203
1.988237 -0.982095 10.242476 28 127 213
2.187393 -0.979471 10.188890 49 95 29
2.244328 -0.976164 10.167089 35 103 198
2.930051 -0.936502 9.957282 41 74 137
2.821114 -0.917766 9.970015 21 21 27
3.934908 -0.867409 9.634447 76 99 147
4.062050 -0.852343 9.598508 76 96 151
3.942333 -0.853397 9.616655 77 103 157
0.721749 -0.916750 10.617562 20 114 190
4.488503 -0.817916 9.481805 75 107 160
0.755430 -0.912672 10.598504 3 101 179
4.536382 -0.812851 9.467932 27 43 119
1.981768 -0.870575 10.229110 23 128 209
2.814999 -0.836003 9.974360 4 2 14
1.592374 -0.859599 10.348479 0 32 93
2.889817 -0.806307 9.951843 19 18 27
2.842704 -0.800851 9.961962 8 122 213
2.946864 -0.795845 9.958017 18 17 27
3.972872 -0.769473 9.594066 96 127 178
2.157258 -0.800540 10.192582 21 122 177
0.478029 -0.832665 10.683496 36 139 218
0.419996 -0.826668 10.703221 61 147 231
2.968071 -0.758836 9.921826 21 62 131
2.154723 -0.769490 10.199359 22 130 207
2.806372 -0.744997 9.974527 15 15 33
2.880377 -0.737748 9.979233 24 19 48
0.710921 -0.780099 10.614310 19 118 198
0.421965 -0.773425 10.680061 0 0 37
0.455883 -0.761874 10.689505 13 13 19
2.193165 -0.716695 10.180783 15 18 26
2.911475 -0.691522 9.984721 81 110 167
0.698044 -0.728866 10.600030 11 10 12
2.277985 -0.680212 10.156377 27 74 158
0.483121 -0.711666 10.641013 48 54 83
2.922741 -0.661713 9.944299 0 3 11
0.643348 -0.703203 10.640975 97 120 170
1.990002 -0.665252 10.247427 9 14 39
2.870243 -0.647106 9.954930 26 22 34
2.190029 -0.650839 10.174485 17 15 21
2.108289 -0.641738 10.197076 14 13 22
1.965654 -0.628111 10.254261 25 132 213
3.121377 -0.594101 9.823733 83 104 172
2.141802 -0.603875 10.198280 18 133 224
3.102606 -0.586341 9.884101 92 125 188
2.987011 -0.568213 9.915907 18 21 29
2.371130 -0.559087 10.110124 72 109 165
2.187109 -0.547046 10.185581 11 7 18
2.341758 -0.540873 10.116464 3 4 14
1.954756 -0.518655 10.247712 24 128 211
2.181559 -0.512278 10.179455 17 14 23
2.242525 -0.501898 10.178833 26 21 30
0.685530 -0.484128 10.624097 25 137 221
0.744897 -0.455254 10.597781 3 10 29
0.718635 -0.432867 10.614790 20 118 190
2.270987 -0.407923 10.148568 8 12 13
1.947296 -0.409074 10.263562 23 129 212
2.846235 -0.391390 9.969726 24 21 36
0.377260 -0.417207 10.702936 44 140 216
0.446241 -0.410931 10.686599 43 145 217
0.484291 -0.408061 10.661051 22 121 201
2.120304 -0.384324 10.185201 58 157 219
2.244742 -0.384037 10.149971 79 155 207
0.331007 -0.385543 10.712792 27 116 190
0.443641 -0.375012 10.662139 49 144 224
2.221555 -0.354608 10.165274 0 0 13
0.679023 -0.364117 10.627427 19 131 221
1.536717 -0.353959 10.362346 0 9 77
2.968405 -0.338211 9.889845 109 156 207
0.710341 -0.361004 10.613466 33 139 216
1.601837 -0.346764 10.355812 0 6 94
2.377302 -0.336099 10.126336 20 18 24
2.910036 -0.310987 9.940667 16 15 25
4.490317 -0.297118 9.456990 79 93 176
1.712373 -0.321958 10.327506 7 61 132
2.264687 -0.308967 10.163993 16 12 18
2.372113 -0.298394 10.125653 19 15 20
0.326598 -0.306580 10.707638 53 113 167
2.236096 -0.284617 10.150511 81 161 224
2.117814 -0.286836 10.230490 78 160 225
0.481971 -0.293640 10.660501 22 102 173
1.937072 -0.279402 10.258862 28 130 212
2.335510 -0.271227 10.121216 80 149 198
2.397886 -0.272032 10.107142 95 108 176
0.660846 -0.269079 10.697043 81 115 158
2.211824 -0.256135 10.161907 0 4 19
0.452907 -0.264906 10.663506 0 0 22
0.383450 -0.254641 10.666562 15 11 16
3.006551 -0.238391 9.910442 0 24 101
2.370678 -0.238748 10.135123 11 15 20
2.831227 -0.222705 9.976592 23 15 26
2.975602 -0.219347 9.917448 17 14 23
0.394462 -0.218157 10.686007 66 94 141
2.898736 -0.194550 9.949364 15 18 23
0.423036 -0.196041 10.671624 15 12 14
2.915995 -0.155834 9.907591 44 77 146
2.139245 -0.158170 10.199903 2 33 78
4.051483 -0.144057 9.569271 29 25 36
2.956311 -0.128660 9.947125 20 20 32
2.172522 -0.124950 10.154882 1 4 19
2.917119 -0.083270 9.923027 109 155 202
0.650217 -0.070859 10.611494 16 113 187
0.683876 -0.067813 10.597030 17 112 186
2.818389 -0.058855 9.960142 4 0 12
2.108675 -0.057419 10.191143 19 15 20
2.053180 -0.042637 10.223309 56 129 121
2.828000 -0.042310 9.935982 18 16 22
2.764112 -0.022367 9.976387 103 169 234
0.302360 -0.011072 10.701037 10 123 203
0.447915 -0.001195 10.658051 38 146 217
0.298608 0.038104 10.696564 38 143 217
1.904233 0.045240 10.246771 23 128 209
2.980382 0.048161 9.847557 26 22 33
0.639044 0.065802 10.613901 9 107 185
2.156272 0.076251 10.167396 60 91 154
3.783158 0.076579 9.638302 80 107 158
0.291070 0.088395 10.695284 0 0 6
2.995744 0.094429 9.881520 85 120 183
0.258008 0.114451 10.702421 41 103 167
2.206799 0.108185 10.159392 13 12 14
0.319019 0.115948 10.683311 68 122 175
0.412893 0.126548 10.651579 45 124 187
5.021366 0.118610 9.343695 34 27 40
1.620400 0.139270 10.349019 74 116 187
0.573323 0.142474 10.656719 37 78 117
0.338895 0.149374 10.669268 7 9 39
0.627999 0.154360 10.596733 82 108 155
0.282001 0.161354 10.683811 5 10 13
0.453732 0.165350 10.632787 11 11 17
2.324990 0.161089 10.107570 21 17 29
2.076920 0.166789 10.200154 73 131 90
4.692487 0.153470 9.372559 88 118 165
1.616877 0.176233 10.338574 47 124 197
2.151672 0.175199 10.155279 114 155 194
2.230529 0.185289 10.113904 33 67 133
3.965153 0.177814 9.573593 87 103 172
0.473638 0.215006 10.633114 35 65 106
4.328672 0.207205 9.463358 88 122 175
4.419527 0.213135 9.436714 103 130 181
1.887493 0.235109 10.240462 25 134 212
2.067305 0.260449 10.186275 57 96 140
4.411383 0.241791 9.456511 7 5 35
0.384339 0.318247 10.653094 31 143 219
2.163876 0.344917 10.124280 0 1 5
0.305333 0.381124 10.673368 28 139 212
2.100807 0.402119 10.161593 18 13 22
2.050772 0.452057 10.181571 6 107 159
2.178469 0.476284 10.135253 81 139 215
0.409334 0.504543 10.668511 15 14 24
0.434705 0.522417 10.617267 7 6 16
1.487848 0.518649 10.346955 29 128 212
0.357473 0.542855 10.660187 0 41 92
0.257938 0.565529 10.666944 6 5 14
0.340441 0.579268 10.670277 0 0 16
0.374773 0.579817 10.638478 0 9 21
2.043812 0.571226 10.189627 54 96 55
1.521714 0.589888 10.366763 0 9 49
0.276479 0.612812 10.666558 21 61 119
0.354613 0.649291 10.635046 5 4 8
2.132628 0.637037 10.107627 6 4 10
0.271384 0.748748 10.643973 20 140 212
2.012666 0.760612 10.178199 45 98 35
2.096742 0.768074 10.138647 27 118 173
0.260544 0.883203 10.637955 26 141 214
1.728371 0.859678 10.271201 72 118 182
2.133290 0.864961 10.107972 99 162 223
0.275943 0.939704 10.630133 16 12 17
0.329307 0.939937 10.612010 14 12 18
1.826458 0.905097 10.197474 21 132 210
2.264669 0.912515 10.069018 14 12 24
2.039831 0.939382 10.119647 13 16 21
2.149527 0.939973 10.094357 11 13 21
2.126687 0.964403 10.116014 112 158 216
2.170423 0.968786 10.071471 0 40 137
2.222888 0.976217 10.067702 97 147 199
2.287701 0.980186 10.069572 92 116 162
2.139407 1.036456 10.081180 4 7 22
1.573147 1.065361 10.264210 0 20 87
2.247335 1.045039 10.048203 18 21 35
1.993238 1.063479 10.153116 83 155 209
2.067794 1.057715 10.111732 46 114 203
1.837780 1.069987 10.179293 0 0 25
1.672125 1.075420 10.229454 0 18 91
1.739844 1.079601 10.206038 0 25 89
2.212894 1.073355 10.055030 47 112 167
0.234467 1.167350 10.613436 7 119 189
0.305609 1.167677 10.579531 19 122 195
2.021355 1.134868 10.103568 20 15 24
2.058545 1.155724 10.102411 81 120 189
1.985519 1.163061 10.154836 92 166 222
2.105123 1.159474 10.085496 116 149 228
2.202349 1.171086 10.042957 12 69 124
2.266261 1.172263 10.039268 89 124 180
2.081150 1.188600 10.090847 0 0 13
0.223069 1.303753 10.610331 8 110 185
2.065315 1.271871 10.221443 123 156 225
2.050586 1.255726 10.084579 96 130 196
2.012979 1.282181 10.115687 9 10 14
2.295289 1.275924 10.011930 65 94 145
1.813917 1.309504 10.158561 0 7 28
2.447926 1.287121 9.964233 104 146 191
2.471246 1.276385 9.901659 77 111 165
2.265677 1.298310 10.019101 10 11 25
0.250289 1.393274 10.569482 30 58 105
1.967954 1.408574 10.108686 18 18 18
2.404147 1.415124 9.968328 127 159 230
1.963047 1.474917 10.085106 15 13 19
1.930134 1.493108 10.118359 86 156 173
1.991360 1.509091 10.089627 29 66 128
1.793765 1.528566 10.140320 0 0 25
2.046517 1.517691 10.061893 45 101 178
1.948248 1.526998 10.088000 10 10 10
0.186969 1.719531 10.563956 13 119 196
0.276353 1.726075 10.537579 17 118 196
1.617426 1.712047 10.143674 36 98 176
0.266017 1.778619 10.509281 5 1 6
1.863546 1.725241 10.055643 67 92 136
1.963670 1.721849 10.031642 63 94 149
2.077193 1.743788 10.012172 84 98 146
1.930911 1.837689 10.039154 78 99 144
1.876347 1.866559 10.074424 17 18 38
2.140986 1.852515 9.974870 73 88 134
2.047328 1.868791 9.983720 0 0 33
2.110610 1.874112 9.975682 15 19 38
1.925167 1.977844 10.037785 0 15 86
2.179883 1.994119 9.926424 0 51 134
0.399016 2.133174 10.443289 14 130 219
0.436298 2.140526 10.433270 32 138 225
0.753935 2.131734 10.357112 8 9 19
0.858781 2.178261 10.332246 48 106 219
1.013187 2.169268 10.228834 70 112 159
0.632547 2.219934 10.363952 6 4 4
1.146879 2.197771 10.222524 36 76 118
1.437404 2.201194 10.114019 33 77 130
1.670580 2.186032 10.052542 16 12 24
0.926547 2.244241 10.290430 6 5 7
3.157786 2.104204 9.597131 27 128 214
1.220910 2.265173 10.199261 9 8 10
1.887926 2.261638 9.998019 56 78 156
1.659501 2.293687 10.053860 16 16 16
1.952366 2.324247 10.014366 11 10 12
0.966270 3.099546 11.133630 31 20 88
1.190653 3.180468 11.232176 114 107 114
0.857429 3.632077 7.892868 93 87 82
0.904371 3.617394 7.823296 79 74 71
2.900736 -0.894482 9.970423 15 15 27
0.860581 -2.220290 10.576090 19 14 15
0.919179 -2.204604 10.542327 31 106 174
0.555864 -2.177738 10.683075 37 83 47
0.509121 -2.149745 10.759183 15 13 12
1.691619 -2.069842 10.372180 74 108 154
0.567259 -2.070631 10.671551 64 122 181
0.618633 -2.045274 10.658550 20 16 21
2.385764 -1.877957 10.135444 18 17 26
2.332501 -1.853438 10.134093 14 51 111
2.219472 -1.845183 10.173792 0 27 91
2.440192 -1.838412 10.100873 104 148 195
2.167260 -1.819325 10.170632 16 18 28
0.884926 -1.862330 10.585265 18 20 28
1.647545 -1.784567 10.351213 26 19 46
1.926641 -1.770566 10.271662 28 18 48
1.794907 -1.775501 10.313552 28 17 43
2.196538 -1.745988 10.191312 22 20 42
1.744023 -1.728044 10.304479 33 144 216
2.124982 -1.705209 10.195131 31 143 219
2.240139 -1.695342 10.158036 28 143 223
0.491309 -1.769864 10.692573 27 119 190
0.564690 -1.761562 10.675512 36 125 199
2.583726 -1.657702 9.996672 24 20 45
0.808375 -1.748064 10.595091 31 128 208
1.805030 -1.688662 10.297448 18 14 49
2.932314 -1.637234 9.968889 26 21 50
1.919366 -1.681527 10.273921 23 18 45
2.525709 -1.646842 10.093416 7 120 214
2.189810 -1.657534 10.183808 9 0 56
2.653179 -1.635418 10.058509 16 115 223
1.687543 -1.670703 10.334671 38 139 214
1.765329 -1.669466 10.325343 28 20 51
2.125943 -1.649389 10.213573 31 138 219
2.455660 -1.628406 10.117365 24 118 225
3.659154 -1.577396 9.736429 30 24 49
0.447666 -1.714454 10.704503 9 10 14
2.238717 -1.634861 10.171758 27 142 223
3.219929 -1.585956 9.915401 10 117 215
2.725085 -1.601113 10.060040 0 110 204
3.028867 -1.580278 9.947601 13 121 222
3.726334 -1.545927 9.761611 27 118 226
2.014937 -1.621152 10.248133 23 21 41
2.164429 -1.611835 10.213265 13 12 21
2.081138 -1.600091 10.202179 13 11 17
2.284918 -1.593749 10.164827 16 13 29
0.491655 -1.663678 10.665524 28 116 187
1.508796 -1.619692 10.393727 44 145 223
3.982313 -1.509685 9.633974 18 129 221
1.562550 -1.611391 10.370461 20 15 44
2.598078 -1.557441 10.032574 16 15 25
2.667538 -1.561598 10.039650 1 7 36
2.397758 -1.564150 10.124824 15 14 23
1.830234 -1.592102 10.297722 40 140 222
2.908507 -1.542385 9.988225 0 0 35
4.181453 -1.473781 9.580922 35 145 233
0.182434 -1.655794 10.805345 199 199 199
1.455218 -1.584228 10.361182 5 3 45
2.122436 -1.556495 10.203733 17 135 224
1.555201 -1.579847 10.364558 19 13 38
2.802739 -1.526915 10.032157 16 17 15
1.342447 -1.575273 10.411991 24 15 35
2.338774 -1.532172 10.130286 17 135 224
1.475916 -1.567705 10.405655 25 16 42
1.876261 -1.553425 10.293078 24 13 46
2.700897 -1.511704 10.027678 90 123 172
1.775710 -1.543208 10.287386 26 17 43
2.057784 -1.531198 10.217924 18 14 25
2.519154 -1.512256 10.076672 26 37 75
1.973615 -1.520424 10.256191 24 19 46
0.467091 -1.572307 10.693379 15 34 95
2.286572 -1.493721 10.149892 17 13 19
1.643520 -1.514718 10.344610 70 118 206
1.332367 -1.496928 10.450299 19 15 34
1.397932 -1.481055 10.428034 46 135 215
1.882078 -1.453037 10.284448 17 11 34
1.906058 -1.405956 10.266430 64 156 229
1.703597 -1.383341 10.317678 25 19 42
1.849510 -1.364665 10.276170 25 16 37
1.943871 -1.355721 10.256804 23 18 39
0.464210 -1.361154 10.690571 36 127 58
1.426440 -1.328953 10.436971 37 135 219
2.500291 -1.263893 10.095467 10 126 220
0.419876 -1.328408 10.712481 29 112 37
2.069494 -1.249416 10.220985 18 17 19
0.846199 -1.284699 10.590931 11 15 20
3.410619 -1.173776 9.787050 89 129 188
3.308190 -1.177871 9.843132 96 123 197
0.552581 -1.244276 10.624370 26 126 204
1.548188 -1.213159 10.390246 27 50 106
1.830619 -1.177027 10.287293 92 156 214
0.469652 -1.205641 10.695799 18 17 19
0.405324 -1.165498 10.728641 17 15 15
0.141004 -1.140602 10.959453 139 137 137
1.986695 -1.060167 10.248819 24 130 213
3.892147 -0.994963 9.679782 66 114 172
4.010310 -0.975626 9.579383 37 82 139
2.355188 -1.016109 10.174144 20 13 20
