ply
        format ascii 1.0
        element vertex 2352
        property float x
        property float y
        property float z
        property uchar red
        property uchar green
        property uchar blue
        end_header
2.092119 -0.013621 10.188391 45 68 46
0.372824 -0.012956 10.662351 47 139 210
2.237785 -0.006642 10.128983 0 49 129
2.049651 -0.003295 10.128664 110 142 207
3.148728 0.003040 9.855966 34 31 40
2.953252 0.009370 9.900625 37 81 145
2.917168 0.031406 9.819320 7 11 52
2.809746 0.037072 10.003456 23 19 30
0.294259 0.041883 10.695055 40 140 212
1.908744 0.040901 10.243860 24 122 206
3.076284 0.040317 9.858804 8 12 41
0.448003 0.054970 10.651785 35 148 221
2.880307 0.059953 9.917925 9 10 20
0.634219 0.069668 10.612245 29 117 193
2.286628 0.085669 10.101222 40 134 200
0.346772 0.090286 10.677302 2 0 8
0.391779 0.089963 10.646553 0 0 4
0.256442 0.113419 10.704763 41 103 167
0.320721 0.114938 10.688729 65 123 182
1.902375 0.124132 10.256045 25 129 212
0.568413 0.141235 10.622161 80 119 157
4.688654 0.129213 9.409073 33 30 45
0.382669 0.150510 10.648061 73 80 129
3.917336 0.147762 9.585482 33 28 43
0.599675 0.168765 10.616768 1 5 23
2.077341 0.163427 10.199395 76 136 95
3.769601 0.154229 9.617191 76 117 180
0.398011 0.174005 10.660853 9 8 18
0.367598 0.188267 10.667586 0 60 125
1.834773 0.193554 10.267350 23 58 126
5.031903 0.178737 9.336053 119 139 196
4.047880 0.187064 9.555959 39 73 127
1.895518 0.205960 10.332470 21 59 117
4.383940 0.194417 9.413360 39 31 42
0.443330 0.227683 10.653481 1 0 10
4.380776 0.219557 9.447389 127 151 209
2.174349 0.244964 10.148907 6 7 17
4.543171 0.226739 9.383718 45 78 128
2.133868 0.267512 10.177691 76 130 183
2.104051 0.339695 10.172208 16 15 17
2.164697 0.346093 10.126798 0 1 5
2.041140 0.353326 10.198724 98 155 200
0.301259 0.380867 10.678699 40 147 221
2.130768 0.382513 10.175081 65 124 193
0.297285 0.431858 10.661413 36 142 219
0.295723 0.515199 10.654964 8 4 10
0.389326 0.514854 10.612364 5 7 15
0.340916 0.579544 10.657830 0 0 16
0.280345 0.612780 10.661281 15 57 116
0.327671 0.623543 10.644886 0 0 46
0.358705 0.646558 10.650940 7 10 14
2.104754 0.675379 10.141490 107 163 192
2.130219 0.699122 10.129668 12 9 35
0.267543 0.743861 10.646668 39 143 214
0.366147 0.778493 10.614241 36 145 223
2.008474 0.758148 10.169726 56 106 42
1.468623 0.834097 10.319875 30 128 216
2.210346 0.845413 10.072703 21 17 29
0.279402 0.948111 10.636837 2 0 0
2.333945 0.893650 10.043761 39 38 112
0.242591 0.969542 10.631885 29 54 98
0.301845 0.969128 10.626451 2 30 94
0.220741 0.987527 10.640214 0 0 7
2.256977 0.953744 10.064983 17 14 16
1.820637 1.042202 10.185379 24 120 203
1.622912 1.063716 10.257651 10 78 151
1.646138 1.064721 10.251820 36 141 222
1.999021 1.058319 10.105107 86 165 216
2.313374 1.089400 10.033352 93 114 166
2.058474 1.151151 10.098973 126 165 209
1.975739 1.159822 10.146317 103 160 216
1.990597 1.157223 10.102255 93 160 215
1.973727 1.265351 10.121153 87 189 164
2.329107 1.254794 10.011514 29 28 30
2.194398 1.264048 10.045904 35 73 137
2.243550 1.271261 10.032217 96 148 214
2.508483 1.272863 9.932239 23 16 31
0.193007 1.380042 10.591977 81 115 151
2.319250 1.304526 10.003652 14 13 17
2.416198 1.310742 9.970034 11 13 21
0.252588 1.392163 10.568506 30 58 105
2.008572 1.380946 10.058364 115 180 224
2.150531 1.392092 10.044998 11 51 116
2.511182 1.426562 9.909627 117 152 220
1.776483 1.489485 10.140080 14 122 204
2.024059 1.483610 10.048594 18 17 26
0.280215 1.729509 10.533206 10 121 193
0.199055 1.782329 10.546463 0 0 4
0.267894 1.784065 10.516283 13 9 14
1.914515 1.718376 10.047280 52 74 116
1.957208 1.741243 10.042914 72 102 151
1.738610 1.765564 10.121964 24 125 203
1.817401 1.766101 10.087465 0 0 14
1.980142 1.831261 10.024007 58 76 123
1.995623 1.866403 10.001637 13 15 33
0.569166 2.039937 10.400417 15 32 11
0.135744 2.104248 10.529271 55 159 218
0.398191 2.130043 10.448152 32 126 221
1.048747 2.143929 10.247934 0 0 8
0.327955 2.202449 10.474939 8 7 9
0.491489 2.213175 10.415334 4 0 5
0.631214 2.218643 10.349033 9 7 7
1.673188 2.181376 10.055181 0 0 9
1.757438 2.222965 10.043628 45 52 115
-0.143414 2.364463 10.538919 197 194 216
1.753483 2.256942 10.033736 30 42 106
1.888016 2.263695 10.003529 56 78 156
1.689545 3.584740 11.086504 115 107 114
1.733730 3.583781 11.069585 128 121 124
2.070386 3.980080 9.081803 109 115 114
0.273493 3.797658 8.421014 88 87 83
2.528550 4.571444 10.086231 104 110 117
0.945183 3.594648 7.803753 192 187 186
1.603754 -1.906087 10.410453 78 106 160
1.428782 -1.602431 10.403028 30 26 101
2.962848 -1.192171 9.950869 14 19 52
0.726206 -1.116199 10.613490 37 58 103
2.104678 1.281414 10.037248 38 41 72
0.829072 -2.179759 10.587856 23 118 192
1.177452 -2.104922 10.516753 13 29 65
0.964527 -2.097468 10.553069 19 107 177
2.272007 -2.018631 10.193037 38 64 124
0.542526 -2.108624 10.660394 15 13 13
2.342085 -2.003659 10.168969 54 70 116
2.564542 -1.970252 10.089609 34 58 100
0.985050 -2.054886 10.542438 9 16 41
0.572594 -2.020967 10.666590 7 2 1
0.850988 -2.006225 10.587127 12 12 24
0.493393 -1.992210 10.683105 31 45 98
0.814165 -1.971943 10.618180 77 103 149
1.965559 -1.890254 10.239144 118 153 203
1.909471 -1.891074 10.258899 110 143 192
2.384217 -1.862959 10.114778 10 13 18
1.945742 -1.882446 10.240850 111 156 200
2.027869 -1.871705 10.222377 93 127 180
2.153862 -1.866609 10.187839 96 134 188
1.608320 -1.882085 10.285892 77 103 169
2.332658 -1.851942 10.130335 117 169 216
2.349798 -1.847488 10.121654 118 149 212
1.987205 -1.864981 10.236639 122 162 215
2.466586 -1.835452 10.078141 107 161 222
0.986020 -1.918079 10.546209 19 21 32
2.220434 -1.841372 10.166544 67 107 165
1.955620 -1.848048 10.235637 25 27 35
2.724639 -1.807114 10.016274 65 70 119
1.079887 -1.873063 10.542048 0 100 197
0.893926 -1.872078 10.588909 16 23 26
0.925782 -1.847583 10.570726 79 133 186
1.420692 -1.795748 10.399025 18 19 39
1.921688 -1.757056 10.264304 24 18 41
1.391110 -1.773293 10.428664 33 127 203
2.191710 -1.730890 10.176048 21 20 46
1.614351 -1.755960 10.349831 29 140 210
1.875448 -1.741013 10.255598 36 142 219
1.990764 -1.731019 10.224370 31 146 221
1.741484 -1.744128 10.308851 32 149 224
2.146005 -1.715298 10.170404 27 142 222
0.793774 -1.758822 10.600569 31 129 205
2.480226 -1.670237 10.081283 23 15 46
2.590123 -1.667573 10.082564 23 18 45
1.815662 -1.693048 10.276583 13 5 82
1.930490 -1.684011 10.245479 19 8 94
2.721803 -1.653596 10.041102 27 13 49
1.907498 -1.689598 10.275942 8 1 36
2.085912 -1.667598 10.193642 0 0 73
1.692445 -1.688065 10.330909 38 139 218
2.926563 -1.626491 9.946868 15 12 44
2.178535 -1.664450 10.192251 18 13 42
2.202479 -1.659943 10.175282 16 15 109
2.450293 -1.642440 10.098005 66 124 237
2.642325 -1.631082 10.037810 21 121 227
1.529068 -1.684166 10.376504 43 142 216
1.750883 -1.669329 10.312366 3 0 45
2.864541 -1.623030 10.027328 30 125 229
1.630176 -1.671431 10.330007 58 39 156
2.757848 -1.614172 10.002194 36 69 232
2.235253 -1.624873 10.166422 21 139 218
3.205813 -1.581644 9.900288 11 120 218
3.419096 -1.563968 9.799957 14 121 218
1.647612 -1.646034 10.349614 29 135 218
3.339561 -1.558715 9.809619 9 120 220
3.023098 -1.565545 9.900328 7 115 216
0.937125 -1.665987 10.571069 0 1 43
2.636844 -1.585515 10.055266 21 118 208
2.712297 -1.579402 10.012394 8 118 214
3.711418 -1.534299 9.734842 19 119 225
0.998900 -1.661131 10.562680 28 31 193
1.354347 -1.636018 10.428627 39 135 211
2.088571 -1.603859 10.208827 13 10 19
2.855388 -1.571318 10.001605 4 116 212
1.616021 -1.624264 10.359850 55 39 150
2.002187 -1.606113 10.245041 19 16 41
0.479692 -1.670620 10.693545 38 115 184
3.107456 -1.539224 9.866747 4 114 210
3.969746 -1.501694 9.616210 28 138 233
0.561928 -1.661053 10.682523 44 101 153
2.600979 -1.561990 10.038523 4 10 29
2.669979 -1.556251 10.025350 8 11 25
2.295776 -1.574197 10.149942 11 9 21
2.906917 -1.548395 10.001214 4 8 61
4.162021 -1.481014 9.544433 43 146 233
0.519450 -1.653522 10.697866 31 119 190
2.122243 -1.572516 10.196694 24 137 223
2.391280 -1.559721 10.127336 14 15 25
1.827060 -1.580326 10.289944 33 141 223
2.735779 -1.536683 10.008291 16 14 14
0.782998 -1.624835 10.602131 34 130 206
0.815358 -1.622278 10.589956 29 127 203
2.021081 -1.565470 10.227715 37 146 224
2.252063 -1.556789 10.163875 49 144 213
1.427924 -1.591065 10.408455 34 30 89
1.943164 -1.569021 10.255192 36 142 225
2.338113 -1.547714 10.121384 16 135 221
1.568774 -1.573984 10.379869 23 14 40
1.670163 -1.561725 10.320604 22 15 42
4.595701 -1.430343 9.432213 29 49 210
2.121727 -1.541314 10.199360 14 134 223
2.711586 -1.510785 10.001422 0 11 69
1.862169 -1.547592 10.280367 30 15 47
4.194462 -1.447247 9.587783 36 135 221
1.986187 -1.540962 10.255392 21 12 39
0.499234 -1.602361 10.676229 7 9 10
1.901328 -1.536990 10.258364 22 11 44
2.250962 -1.525139 10.160223 42 133 232
1.785238 -1.540605 10.302721 21 16 45
2.050441 -1.530502 10.231374 24 18 35
2.337610 -1.515449 10.120552 18 133 224
2.675106 -1.495400 10.005582 83 107 159
2.745750 -1.498295 10.031905 43 68 124
1.515684 -1.540139 10.387920 37 143 220
1.448846 -1.534240 10.395051 47 130 215
2.708379 -1.475755 10.019037 13 11 17
4.464937 -1.403911 9.510528 0 4 49
1.927117 -1.500525 10.258512 71 157 239
0.703738 -1.549896 10.616805 65 92 129
0.776328 -1.547715 10.607303 90 113 159
0.900663 -1.544127 10.564832 53 89 135
1.990845 -1.491172 10.241351 21 14 47
0.873905 -1.521905 10.588112 0 0 11
1.893618 -1.476440 10.249492 23 14 54
0.956717 -1.513703 10.540553 16 123 208
1.799743 -1.480228 10.322286 54 152 230
1.696687 -1.479458 10.337106 47 152 225
1.845774 -1.473348 10.286674 59 152 227
2.580078 -1.427344 10.056876 14 12 12
2.402511 -1.430572 10.124489 26 108 186
2.189984 -1.438872 10.186438 2 43 75
2.791291 -1.409740 9.989212 24 20 25
1.657135 -1.450759 10.333890 6 3 72
1.713158 -1.447991 10.325250 22 7 69
1.972262 -1.431737 10.232532 20 12 53
2.349624 -1.416342 10.137829 92 114 180
1.488105 -1.447034 10.384077 24 82 171
1.880581 -1.431659 10.263317 23 17 42
2.027849 -1.421440 10.226993 16 15 71
1.617975 -1.433837 10.350088 48 140 219
1.789086 -1.428063 10.305382 11 65 152
2.766219 -1.379930 10.003036 62 110 162
1.676418 -1.421825 10.325403 74 149 225
1.908359 -1.404808 10.264014 64 156 229
0.758102 -1.336321 10.604745 21 131 207
2.013761 -1.283975 10.224818 39 136 216
3.065248 -1.241097 9.914341 20 18 24
2.689769 -1.250217 10.021686 116 153 221
2.641558 -1.251282 10.053701 38 74 144
2.744530 -1.242122 10.004612 28 80 156
1.363586 -1.290219 10.441961 14 25 63
2.497013 -1.242121 10.056002 8 122 213
2.929591 -1.226524 9.935325 85 146 212
2.978582 -1.219672 9.922745 54 104 176
3.391182 -1.213431 9.854056 18 17 26
0.518593 -1.305931 10.669498 48 140 205
1.304865 -1.285057 10.481300 0 48 15
3.029916 -1.214377 9.913464 26 81 138
2.908799 -1.199075 9.953767 0 0 16
0.395348 -1.279411 10.725801 15 14 10
0.572689 -1.267102 10.661848 39 130 205
3.778298 -1.139688 9.622066 54 106 176
0.551325 -1.230538 10.667066 22 122 200
0.463065 -1.228619 10.690922 12 14 14
1.834407 -1.166486 10.285010 0 18 85
1.934388 -1.151926 10.265650 39 91 162
0.462207 -1.193156 10.673792 15 13 19
0.482711 -1.177558 10.692451 16 11 12
2.906349 -1.082088 9.964740 115 152 208
0.763177 -1.153305 10.646864 11 12 22
2.852206 -1.077795 9.973969 109 151 198
0.509327 -1.142815 10.672766 68 127 196
0.839687 -1.125821 10.612904 10 11 21
2.222540 -1.077510 10.173018 38 60 155
0.863740 -1.092682 10.577928 65 102 154
2.298178 -1.036800 10.136105 0 0 9
1.991897 -1.045343 10.223827 29 134 215
3.922994 -0.984181 9.633528 94 138 197
4.022645 -0.978953 9.609318 37 82 139
1.631418 -1.040473 10.345160 19 85 168
0.858409 -1.042304 10.578990 45 88 145
2.214076 -1.003329 10.176652 10 17 12
2.859970 -0.973266 9.978442 41 85 168
2.298804 -0.977130 10.142077 64 133 203
1.988699 -0.982956 10.244804 28 127 213
2.187423 -0.979386 10.189251 49 95 29
2.245327 -0.976284 10.162882 35 103 198
2.931284 -0.935648 9.949309 41 74 137
2.821107 -0.917634 9.970494 21 21 27
3.934826 -0.867263 9.635048 76 99 147
4.061969 -0.852203 9.599154 76 96 151
3.943498 -0.851207 9.609323 77 103 157
0.721861 -0.916809 10.617489 20 114 190
4.488397 -0.817762 9.482451 75 107 160
0.755544 -0.912692 10.598758 3 101 179
4.536270 -0.812719 9.468613 27 43 119
1.981817 -0.870542 10.229644 23 128 209
2.814993 -0.835895 9.974844 4 2 14
1.592407 -0.859526 10.348267 0 32 93
2.889808 -0.806292 9.952365 19 18 27
2.842684 -0.800675 9.962439 8 122 213
2.948247 -0.795626 9.950865 18 17 27
3.973720 -0.767769 9.588918 96 127 178
2.157269 -0.800453 10.192850 21 122 177
0.478159 -0.832698 10.683267 36 139 218
0.420124 -0.826715 10.703478 61 147 231
2.968045 -0.758722 9.922352 21 62 131
2.154742 -0.769425 10.199739 22 130 207
2.806345 -0.744865 9.974962 15 15 33
2.880352 -0.737633 9.979731 24 19 48
0.711028 -0.780124 10.614345 19 118 198
0.422088 -0.773496 10.679832 0 0 37
0.455961 -0.761918 10.689179 13 13 19
2.193182 -0.716647 10.181158 15 18 26
2.911449 -0.691388 9.985223 81 110 167
0.698144 -0.728931 10.599777 11 10 12
2.277988 -0.680136 10.156751 27 74 158
0.483236 -0.711694 10.640516 48 54 83
2.922706 -0.661494 9.944792 0 3 11
0.643455 -0.703246 10.641352 97 120 170
1.989998 -0.665181 10.247686 9 14 39
2.870214 -0.646960 9.955428 26 22 34
2.190038 -0.650740 10.174842 17 15 21
2.108296 -0.641674 10.197393 14 13 22
1.965669 -0.627978 10.254519 25 132 213
3.121328 -0.593986 9.824281 83 104 172
2.141806 -0.603811 10.198618 18 133 224
3.102553 -0.586205 9.884606 92 125 188
2.986945 -0.568053 9.916399 18 21 29
2.371128 -0.559031 10.110549 72 109 165
2.187100 -0.546970 10.185861 11 7 18
2.341745 -0.540794 10.116831 3 4 14
1.954773 -0.518664 10.248035 24 128 211
2.181564 -0.512258 10.179842 17 14 23
2.242526 -0.501854 10.179293 26 21 30
0.685612 -0.484197 10.623528 25 137 221
0.744968 -0.455292 10.597135 3 10 29
0.718720 -0.432909 10.614126 20 118 190
2.270979 -0.407871 10.148966 8 12 13
1.947308 -0.409121 10.263895 23 129 212
2.846194 -0.391299 9.970243 24 21 36
0.377362 -0.417308 10.702381 44 140 216
0.446342 -0.410997 10.686479 43 145 217
0.484393 -0.408117 10.660282 22 121 201
2.120296 -0.384278 10.185557 58 157 219
2.244737 -0.383992 10.150370 79 155 207
0.331111 -0.385645 10.712230 27 116 190
0.443736 -0.375086 10.661356 49 144 224
2.221538 -0.354553 10.165640 0 0 13
0.679101 -0.364166 10.626936 19 131 221
1.536751 -0.353965 10.362472 0 9 77
2.968352 -0.338098 9.890383 109 156 207
0.710417 -0.361052 10.613051 33 139 216
1.601854 -0.346759 10.355994 0 6 94
2.377285 -0.336060 10.126783 20 18 24
2.909978 -0.310880 9.941179 16 15 25
4.490145 -0.296974 9.457619 79 93 176
1.712388 -0.321976 10.327742 7 61 132
2.264674 -0.308934 10.164418 16 12 18
2.372095 -0.298343 10.126086 19 15 20
0.326703 -0.306655 10.706897 53 113 167
2.236083 -0.284562 10.150934 81 161 224
2.117804 -0.286799 10.230852 78 160 225
0.482057 -0.293707 10.659593 22 102 173
1.937080 -0.279405 10.259379 28 130 212
2.335485 -0.271172 10.121637 80 149 198
2.397864 -0.271969 10.107601 95 108 176
0.660921 -0.269141 10.696783 81 115 158
2.211804 -0.256092 10.162312 0 4 19
0.452996 -0.264983 10.663635 0 0 22
0.383539 -0.254718 10.665714 15 11 16
3.006489 -0.238298 9.910981 0 24 101
2.370656 -0.238710 10.135580 11 15 20
2.831176 -0.222565 9.977125 23 15 26
2.975541 -0.219215 9.917996 17 14 23
0.394559 -0.218235 10.685114 66 94 141
2.898701 -0.194516 9.949918 15 18 23
0.423120 -0.196151 10.670775 15 12 14
2.915934 -0.155770 9.908135 44 77 146
2.139227 -0.158139 10.200294 2 33 78
4.051332 -0.143738 9.569896 29 25 36
2.956247 -0.128622 9.947673 20 20 32
2.172498 -0.124914 10.155285 1 4 19
2.917054 -0.083196 9.923578 109 155 202
0.650271 -0.070950 10.610627 16 113 187
0.683928 -0.067889 10.596209 17 112 186
2.818329 -0.058765 9.960689 4 0 12
2.108655 -0.057414 10.191573 19 15 20
2.053162 -0.042624 10.223728 56 129 121
2.827938 -0.042260 9.936556 18 16 22
2.764048 -0.022292 9.976909 103 169 234
0.302441 -0.011196 10.700445 10 123 203
0.447988 -0.001292 10.657833 38 146 217
0.298691 0.038012 10.696230 38 143 217
1.904219 0.045235 10.247149 23 128 209
2.980308 0.048218 9.848126 26 22 33
0.639089 0.065710 10.613263 9 107 185
2.156238 0.076268 10.167842 60 91 154
3.783022 0.076697 9.638926 80 107 158
0.291144 0.088281 10.694909 0 0 6
2.995665 0.094492 9.882091 85 120 183
0.258084 0.114334 10.702524 41 103 167
2.206759 0.108202 10.159868 13 12 14
0.319087 0.115832 10.682972 68 122 175
0.412960 0.126460 10.651290 45 124 187
5.021123 0.118867 9.344344 34 27 40
1.620388 0.139246 10.349310 74 116 187
0.573374 0.142371 10.656260 37 78 117
0.338967 0.149264 10.669141 7 9 39
0.628049 0.154262 10.596980 82 108 155
0.282075 0.161253 10.683796 5 10 13
0.453794 0.165262 10.632573 11 11 17
2.324942 0.161113 10.108061 21 17 29
2.076886 0.166797 10.200594 73 131 90
4.692283 0.153625 9.373240 88 118 165
1.616864 0.176206 10.338891 47 124 197
2.151636 0.175207 10.155745 114 155 194
2.230485 0.185294 10.114428 33 67 133
3.964996 0.177942 9.574226 87 103 172
0.473685 0.214892 10.632897 35 65 106
4.328493 0.207326 9.464025 88 122 175
4.419343 0.213206 9.437394 103 130 181
1.887462 0.235102 10.240872 25 134 212
2.067264 0.260451 10.186735 57 96 140
4.411191 0.241977 9.457179 7 5 35
0.384395 0.318134 10.653337 31 143 219
2.163830 0.344911 10.124793 0 1 5
0.305378 0.380993 10.673668 28 139 212
2.100755 0.402118 10.162086 18 13 22
2.050719 0.452054 10.182074 6 107 159
2.178411 0.476272 10.135812 81 139 215
0.409362 0.504411 10.668985 15 14 24
0.434256 0.525221 10.620971 7 6 16
1.487823 0.518589 10.347417 29 128 212
0.357498 0.542719 10.660747 0 41 92
0.257964 0.565390 10.667557 6 5 14
0.340465 0.579131 10.670890 0 0 16
0.374811 0.579682 10.639103 0 9 21
2.043763 0.571184 10.190200 54 96 55
1.521688 0.589823 10.367271 0 9 49
0.276517 0.612667 10.666922 21 61 119
0.354645 0.649148 10.635443 5 4 8
2.132565 0.636997 10.108233 6 4 10
0.271395 0.748604 10.644757 20 140 212
2.012601 0.760563 10.178806 45 98 35
2.096674 0.768058 10.139232 27 118 173
0.260542 0.883056 10.638812 26 141 214
1.728316 0.859611 10.271807 72 118 182
2.133212 0.864928 10.108593 99 162 223
0.275958 0.939542 10.630566 16 12 17
0.329319 0.939779 10.612497 14 12 18
1.826394 0.905055 10.198091 21 132 210
2.264583 0.912495 10.069648 14 12 24
2.039755 0.939317 10.120283 13 16 21
2.149444 0.939911 10.094995 11 13 21
2.126539 0.964407 10.116591 112 158 216
2.170310 0.968509 10.072387 0 40 137
2.222801 0.976189 10.068344 97 147 199
2.287607 0.980138 10.070214 92 116 162
2.139318 1.036393 10.081861 4 7 22
1.573091 1.065285 10.264888 0 20 87
2.247241 1.044994 10.048872 18 21 35
1.993156 1.063429 10.153766 83 155 209
2.067708 1.057667 10.112382 46 114 203
1.837711 1.069936 10.179950 0 0 25
1.672053 1.075319 10.230174 0 18 91
1.739775 1.079522 10.206691 0 25 89
2.212801 1.073318 10.055692 47 112 167
0.234468 1.167174 10.613894 7 119 189
0.305610 1.167473 10.580292 19 122 195
2.021269 1.134756 10.104255 20 15 24
2.058454 1.155675 10.103075 81 120 189
1.985432 1.163004 10.155499 92 166 222
2.105031 1.159429 10.086172 116 149 228
2.202251 1.171047 10.043633 12 69 124
2.266157 1.172219 10.039933 89 124 180
2.081054 1.188550 10.091509 0 0 13
0.223064 1.303540 10.611116 8 110 185
2.065230 1.271502 10.222562 123 156 225
2.050489 1.255660 10.085250 96 130 196
2.012886 1.282125 10.116385 9 10 14
2.295177 1.275849 10.012619 65 94 145
1.813831 1.309433 10.159248 0 7 28
2.447803 1.287074 9.964915 104 146 191
2.471124 1.276248 9.902377 77 111 165
2.265564 1.298264 10.019780 10 11 25
0.250277 1.393039 10.570226 30 58 105
1.967853 1.408506 10.109380 18 18 18
2.404018 1.415067 9.969025 127 159 230
1.962940 1.474813 10.085775 15 13 19
1.930036 1.493044 10.119084 86 156 173
1.991251 1.509004 10.090316 29 66 128
1.793666 1.528476 10.141021 0 0 25
2.046404 1.517596 10.062613 45 101 178
1.948140 1.526913 10.088721 10 10 10
0.186936 1.719275 10.564715 13 119 196
0.276318 1.725812 10.538321 17 118 196
1.617325 1.711944 10.144400 36 98 176
0.265887 1.778442 10.510288 5 1 6
1.863430 1.725077 10.056400 67 92 136
1.963548 1.721763 10.032381 63 94 149
2.077053 1.743684 10.012946 84 98 146
1.930766 1.837565 10.039950 78 99 144
1.876222 1.866390 10.075191 17 18 38
2.140843 1.852374 9.975536 73 88 134
2.047191 1.868685 9.984423 0 0 33
2.110456 1.873999 9.976468 15 19 38
1.925031 1.977746 10.038515 0 15 86
2.179731 1.994034 9.927148 0 51 134
0.398880 2.132984 10.444240 14 130 219
0.436163 2.140337 10.434215 32 138 225
0.753847 2.131536 10.357735 8 9 19
0.858659 2.178090 10.333127 48 106 219
1.013086 2.169039 10.229630 70 112 159
0.632459 2.219709 10.364485 6 4 4
1.146771 2.197554 10.223322 36 76 118
1.437278 2.201040 10.114724 33 77 130
1.670426 2.185891 10.053362 16 12 24
0.926446 2.243954 10.291196 6 5 7
3.157562 2.104189 9.597859 27 128 214
1.220791 2.265005 10.199962 9 8 10
1.887766 2.261515 9.998821 56 78 156
1.659360 2.293472 10.054646 16 16 16
1.952219 2.324153 10.015150 11 10 12
0.966044 3.099329 11.134527 31 20 88
1.190455 3.180270 11.233056 114 107 114
0.857025 3.631713 7.893687 93 87 82
0.903967 3.617029 7.824111 79 74 71
2.902239 -0.894550 9.963713 15 15 27
0.860739 -2.220250 10.576458 19 14 15
0.919372 -2.204531 10.542624 31 106 174
0.556076 -2.177721 10.683562 37 83 47
0.509333 -2.149626 10.759193 15 13 12
1.691764 -2.069748 10.372635 74 108 154
0.567462 -2.070616 10.671873 64 122 181
0.618832 -2.045250 10.658911 20 16 21
2.385857 -1.877830 10.135954 18 17 26
2.333629 -1.846131 10.105318 14 51 111
2.219574 -1.845074 10.174314 0 27 91
2.440872 -1.830796 10.073146 104 148 195
2.167359 -1.819218 10.171059 16 18 28
0.885096 -1.862267 10.585455 18 20 28
1.647670 -1.784485 10.351624 26 19 46
1.926137 -1.766820 10.264274 28 18 48
1.793915 -1.772696 10.312300 28 17 43
2.196389 -1.741379 10.178493 22 20 42
1.744135 -1.727944 10.304802 33 144 216
2.125896 -1.699528 10.172579 31 143 219
2.241119 -1.689236 10.133465 28 143 223
0.491497 -1.769859 10.692864 27 119 190
0.564872 -1.761567 10.675776 36 125 199
2.583802 -1.657689 9.997212 24 20 45
0.808542 -1.748036 10.595308 31 128 208
1.805806 -1.685892 10.286148 18 14 49
2.931854 -1.631564 9.953367 26 21 50
1.919388 -1.679434 10.269225 23 18 45
2.526249 -1.643217 10.080132 7 120 214
2.189902 -1.657422 10.184215 9 0 56
2.653316 -1.631460 10.046183 16 115 223
1.687654 -1.670620 10.334990 38 139 214
1.765437 -1.669380 10.325733 28 20 51
2.126035 -1.649326 10.214006 31 138 219
2.455742 -1.628283 10.117813 24 118 225
3.658087 -1.569640 9.718204 30 24 49
0.447852 -1.714452 10.704737 9 10 14
2.238800 -1.634778 10.172194 27 142 223
3.219981 -1.585815 9.915949 10 117 215
2.724271 -1.598403 10.056894 0 110 204
3.029939 -1.575465 9.928517 13 121 222
3.725249 -1.542329 9.756007 27 118 226
2.014064 -1.618406 10.246352 23 21 41
2.163822 -1.609503 10.211144 13 12 21
2.081219 -1.599962 10.202536 13 11 17
2.285003 -1.593636 10.165246 16 13 29
0.491833 -1.663734 10.665903 28 116 187
1.508911 -1.619622 10.394006 44 145 223
3.982301 -1.509701 9.634625 18 129 221
1.562666 -1.611320 10.370813 20 15 44
2.598130 -1.557297 10.033028 16 15 25
2.668595 -1.557053 10.020301 1 7 36
2.397818 -1.564016 10.125234 15 14 23
1.829641 -1.589462 10.294987 40 140 222
2.908608 -1.539436 9.979811 0 0 35
4.181423 -1.473775 9.581580 35 145 233
0.182616 -1.655848 10.806531 199 199 199
1.455345 -1.584248 10.361587 5 3 45
2.122515 -1.556392 10.204117 17 135 224
1.554456 -1.577580 10.364391 19 13 38
2.802769 -1.525684 10.030268 16 17 15
1.342567 -1.575204 10.412173 24 15 35
2.338851 -1.532059 10.130710 17 135 224
1.476028 -1.567611 10.405860 25 16 42
1.876396 -1.553355 10.293460 24 13 46
2.700943 -1.511583 10.028159 90 123 172
1.775809 -1.543129 10.287783 26 17 43
2.057871 -1.531146 10.218337 18 14 25
2.519205 -1.512103 10.077101 26 37 75
1.973025 -1.518649 10.256312 24 19 46
0.467274 -1.572317 10.693639 15 34 95
2.287581 -1.490266 10.134003 17 13 19
1.643629 -1.514710 10.344984 70 118 206
1.332487 -1.496900 10.450554 19 15 34
1.398056 -1.481019 10.428556 46 135 215
1.881629 -1.451213 10.283775 17 11 34
1.906255 -1.404016 10.261162 64 156 229
1.703777 -1.382025 10.314805 25 19 42
1.849868 -1.362139 10.267822 25 16 37
1.944074 -1.353622 10.250895 23 18 39
0.464351 -1.361174 10.690722 36 127 58
1.426541 -1.328904 10.437169 37 135 219
2.501280 -1.262058 10.085236 10 126 220
0.419987 -1.328438 10.712613 29 112 37
2.069738 -1.249750 10.223385 18 17 19
0.846334 -1.284694 10.591227 11 15 20
3.410604 -1.173617 9.787603 89 129 188
3.308206 -1.177755 9.843688 96 123 197
0.552728 -1.244135 10.623804 26 126 204
1.548272 -1.213104 10.390490 27 50 106
1.830679 -1.176947 10.287527 92 156 214
0.469790 -1.205664 10.695865 18 17 19
0.405474 -1.165544 10.728667 17 15 15
0.141172 -1.140637 10.959360 139 137 137
1.987134 -1.059504 10.246103 24 130 213
3.892084 -0.994783 9.680377 66 114 172
4.010248 -0.975470 9.579995 37 82 139
2.355203 -1.015884 10.174459 20 13 20
2.214849 -1.016866 10.179104 17 17 17
2.916369 -0.984950 9.976860 18 19 23
1.979096 -0.970660 10.244191 29 130 216
2.813556 -0.916848 9.960462 15 19 24
0.102002 -0.979212 10.821100 38 21 132
2.851046 -0.873555 9.975076 49 85 163
1.978189 -0.881847 10.232252 26 128 211
2.281085 -0.874145 10.143238 97 131 184
4.080736 -0.811826 9.558052 32 28 40
2.808806 -0.837637 9.967080 15 14 24
1.594229 -0.859880 10.373546 0 33 84
1.777642 -0.843318 10.369214 39 84 157
2.840347 -0.785539 9.958900 10 122 218
0.341890 -0.762597 10.714398 9 5 10
3.009940 -0.675798 9.897178 108 171 209
2.977927 -0.668664 9.908841 104 145 214
4.034804 -0.646554 9.586485 27 23 34
0.502657 -0.713319 10.681046 56 73 124
0.648616 -0.704846 10.630896 8 28 75
1.996744 -0.667618 10.253775 0 0 14
2.187846 -0.639421 10.183764 15 15 21
2.948153 -0.545679 9.925999 20 17 26
1.951527 -0.525463 10.249473 23 129 214
4.050253 -0.470311 9.555410 25 25 31
2.121357 -0.383549 10.197288 58 157 219
0.692973 -0.370670 10.626077 11 127 221
0.299455 -0.345742 10.718093 16 12 17
2.152467 -0.320534 10.201205 16 15 19
0.423541 -0.331623 10.688665 12 8 14
2.371447 -0.310513 10.124945 14 14 20
2.855571 -0.292898 9.965948 18 16 28
4.063291 -0.277909 9.560000 21 21 27
2.191688 -0.189553 10.158346 14 16 16
2.789967 -0.182041 9.960518 30 138 220
3.913899 -0.136157 9.596881 25 21 32
2.782668 -0.096793 9.960814 25 134 220
2.110486 -0.063708 10.197708 20 16 22
0.665746 -0.060644 10.611118 46 142 218
2.826208 -0.053414 9.968653 27 19 30
1.500209 -0.045789 10.372498 0 24 106
1.704585 -0.033038 10.314546 0 48 114
2.057087 -0.032919 10.199411 65 136 116
1.822004 -0.018313 10.276031 0 23 109
4.394615 -0.012394 9.439980 26 25 41
2.097032 0.009032 10.187631 2 8 19
0.308598 0.018389 10.698211 27 144 219
0.436894 0.026937 10.668793 25 145 217
0.655717 0.057785 10.598460 22 120 196
2.882185 0.056483 9.925834 9 10 20
2.967547 0.058832 9.897116 21 20 36
2.168294 0.078104 10.166127 5 34 91
2.919505 0.081287 9.902170 72 114 181
0.357295 0.090673 10.705668 0 0 1
0.584543 0.090897 10.624329 10 12 20
1.887775 0.108403 10.247334 25 129 212
4.407813 0.100557 9.461061 30 28 40
1.598355 0.153064 10.157460 3 35 110
1.688291 0.157748 10.311909 0 26 109
1.876354 0.244820 10.242334 28 133 214
2.064509 0.266701 10.185381 10 44 114
2.190159 0.273812 10.137729 115 152 210
0.319600 0.323858 10.667917 33 141 219
0.373348 0.327166 10.654426 32 142 218
2.103249 0.327948 10.166522 11 14 18
2.047323 0.467409 10.173955 16 117 169
0.421550 0.496533 10.641190 19 16 18
0.319411 0.520995 10.714756 0 0 9
1.488913 0.515882 10.352988 26 129 215
0.222602 0.533701 10.671650 15 40 72
2.073277 0.533651 10.160013 16 15 24
0.223117 0.594023 10.687960 16 14 14
2.042298 0.568099 10.179599 52 93 56
0.280483 0.759165 10.645313 20 143 217
1.825352 0.821874 10.211923 24 130 215
0.270882 0.873525 10.628373 19 141 217
1.862254 0.865195 10.205659 4 16 28
2.008665 0.866176 10.141973 87 161 219
0.391311 0.931945 10.608521 12 14 14
1.841510 1.074309 10.187195 13 25 49
2.145390 1.084770 10.173836 0 37 100
1.794010 1.133201 10.179955 23 131 213
2.019751 1.125727 10.114202 20 16 21
2.276811 1.174299 10.048185 102 146 205
2.029922 1.204648 10.127322 20 16 22
0.233505 1.293978 10.605970 38 136 212
2.223276 1.233286 10.039933 17 15 21
1.784496 1.257872 10.170104 23 129 212
1.611498 1.292093 10.220977 30 63 109
2.017391 1.294459 10.120329 13 14 18
0.275372 1.360241 10.572619 15 14 18
1.818259 1.310966 10.163447 10 12 22
2.460850 1.287802 9.968598 17 59 124
0.319489 1.387999 10.527347 48 80 133
2.223166 1.387220 9.973932 133 156 206
1.575631 1.503864 10.230262 5 40 113
0.206587 1.596683 10.582454 25 134 208
1.795516 1.528759 10.132264 7 10 25
0.267616 1.715330 10.538181 19 120 199
0.134968 1.746053 10.562231 14 12 12
0.270004 1.778015 10.506106 17 13 18
0.146611 1.796892 10.553096 78 128 174
0.311521 1.804923 10.482847 76 98 156
1.791646 1.749197 10.129036 16 17 31
2.007250 1.731493 10.007094 0 22 89
2.119185 1.880470 10.029150 11 17 40
1.430186 1.929051 10.181071 43 77 161
1.551578 1.933040 10.126994 0 3 78
0.767433 2.141423 10.352886 8 11 15
0.803989 2.137237 10.309799 7 10 18
0.316926 2.181293 10.457347 18 15 17
0.711349 2.166600 10.357304 25 134 220
1.064388 2.160334 10.255255 10 9 18
1.017930 2.580109 12.229223 58 110 210
1.101636 2.161346 10.222166 12 10 16
1.199263 2.178908 10.243100 9 8 17
1.245106 2.169699 10.168215 13 10 19
0.787376 2.213610 10.304484 10 12 13
0.933068 2.224041 10.262809 15 13 19
1.662249 2.206660 10.091153 10 13 18
1.802684 2.215984 10.044981 16 16 22
1.743005 2.234737 10.021406 4 17 73
-0.135886 2.374071 10.552996 178 174 180
1.946303 2.305197 9.974065 16 15 17
1.018115 3.078747 11.197752 110 101 141
4.032106 3.310356 11.332401 20 13 50
2.222293 3.411808 10.910165 119 111 134
2.126710 -1.867530 10.201586 1 27 73
0.935691 -1.923801 10.563538 35 102 165
1.630664 -1.676235 10.322403 14 0 102
1.535508 -1.664566 10.373219 53 151 221
2.559386 -1.601441 10.030891 0 40 167
1.455924 -1.481467 10.416114 56 76 134
1.610462 -1.438238 10.336579 55 137 219
0.410388 -1.225469 10.728819 0 7 44
4.480244 -0.934460 9.453306 29 43 125
4.168078 -0.757415 9.584662 52 65 121
2.936566 -0.637247 9.922071 21 17 29
2.151587 -0.158441 10.189591 0 0 34
2.226443 -0.154100 10.140380 84 114 173
2.897535 -0.028397 9.951453 18 19 29
3.070665 0.056004 9.853270 17 18 28
2.765651 0.077684 9.957706 5 61 126
0.308799 0.454120 10.659520 26 129 208
2.301759 0.981319 10.074458 0 0 37
2.027785 1.025971 10.126226 25 24 40
0.119189 2.122073 10.530938 38 90 160
0.999000 -2.152592 10.556311 6 11 26
2.466296 -1.992798 10.116890 31 52 103
0.625777 -2.037125 10.647869 21 16 18
0.755461 -2.029804 10.606518 20 18 18
1.945303 -1.891440 10.259275 124 164 206
1.010587 -1.935433 10.539466 19 23 34
1.994084 -1.878712 10.232414 57 97 146
2.437910 -1.836024 10.088299 38 85 137
1.215180 -1.842677 10.510437 30 30 196
1.931415 -1.779775 10.272974 25 20 47
1.522434 -1.768978 10.378549 68 156 226
1.449443 -1.759352 10.384630 28 134 211
1.404809 -1.751015 10.413790 67 110 213
1.852130 -1.726774 10.282519 32 139 220
1.511027 -1.737978 10.376712 113 165 232
1.969192 -1.717202 10.249850 28 144 221
2.122309 -1.699333 10.193423 35 149 226
2.240430 -1.691076 10.169391 34 144 226
2.584876 -1.661485 10.000189 24 19 46
0.550978 -1.761217 10.697097 44 129 199
2.788357 -1.646289 9.994301 27 19 49
0.809641 -1.735561 10.592177 23 131 209
2.942041 -1.637703 9.974585 25 17 47
3.072119 -1.617561 9.897235 29 21 51
1.342816 -1.703196 10.450825 21 16 45
2.533733 -1.619352 10.016079 4 120 215
2.466055 -1.632137 10.131826 16 127 219
2.725357 -1.599575 10.013048 11 119 220
2.859399 -1.599070 10.013624 14 115 217
0.978526 -1.678599 10.572672 27 31 190
2.028158 -1.631297 10.252813 22 17 38
1.375934 -1.640172 10.434621 56 142 224
2.295528 -1.590024 10.174120 11 1 13
2.199111 -1.583604 10.184862 11 14 18
3.965115 -1.497005 9.599020 28 138 233
2.774407 -1.546029 10.000408 9 10 24
0.173155 -1.668089 10.810101 196 196 196
1.696830 -1.587838 10.332543 20 14 39
3.052411 -1.517794 9.902594 15 12 27
2.471466 -1.545986 10.127009 22 18 23
3.336524 -1.504381 9.865804 10 6 31
1.459577 -1.575492 10.386775 27 23 42
1.334350 -1.576358 10.434453 24 15 41
3.684467 -1.466932 9.750205 22 18 23
1.773121 -1.546026 10.298281 25 15 45
2.575908 -1.510924 10.078863 100 146 194
0.837582 -1.564228 10.580815 23 30 50
4.463101 -1.394861 9.501269 19 17 23
1.060638 -1.545585 10.556420 18 124 212
1.488028 -1.508557 10.379205 69 151 228
2.096473 -1.489194 10.227924 33 35 23
1.523413 -1.500799 10.382885 80 155 234
1.616454 -1.502322 10.358116 77 150 230
1.824528 -1.486114 10.295158 61 152 233
1.389608 -1.450518 10.405729 68 156 233
1.228378 -1.419028 10.481639 20 14 33
1.703967 -1.376470 10.292030 24 16 39
1.850695 -1.367999 10.263216 25 17 40
1.950349 -1.363786 10.264062 24 16 39
2.039897 -1.357691 10.248041 23 19 30
0.460355 -1.356356 10.679011 26 125 47
0.437092 -1.343221 10.764906 17 96 29
1.899965 -1.163472 10.213589 0 43 150
0.684012 -1.186583 10.624169 16 15 17
1.974325 -1.074528 10.235655 25 131 216
2.220072 -1.023862 10.201676 17 16 18
2.025634 -1.014289 10.246464 8 13 28
0.128726 -1.054074 10.916018 141 136 138
1.966969 -0.956336 10.240809 25 131 216
2.332689 -0.922242 10.157754 14 16 16
2.872603 -0.866125 10.024108 51 85 168
3.993826 -0.813468 9.584934 24 23 33
0.737790 -0.892462 10.599539 22 117 197
1.570018 -0.863049 10.378884 6 45 119
1.554293 -0.839107 10.116206 0 33 84
2.329865 -0.823300 10.170117 18 14 19
1.703244 -0.831849 10.318353 42 74 139
0.386666 -0.855033 10.710139 15 12 14
2.016856 -0.818687 10.275599 11 13 24
3.031372 -0.741854 9.957873 21 20 24
0.530207 -0.770233 10.675448 13 13 13
0.648702 -0.768959 10.624702 18 15 17
2.105900 -0.735111 10.193233 22 15 22
2.202353 -0.735983 10.206677 18 17 27
1.997053 -0.673745 10.250180 13 12 16
2.963032 -0.595091 9.924799 101 168 217
2.280461 -0.562634 10.135723 34 70 130
2.187694 -0.536146 10.203708 13 13 19
2.321236 -0.508110 10.153529 17 14 23
1.541161 -0.508125 10.381569 0 28 86
2.232775 -0.476641 10.163857 0 3 68
1.674800 -0.478592 10.327299 47 79 144
1.986434 -0.466259 10.270610 12 12 28
0.698962 -0.463725 10.611118 27 136 221
2.323968 -0.446480 10.172020 17 16 20
2.079808 -0.423505 10.192487 18 16 22
0.459780 -0.393137 10.672201 23 124 202
1.514666 -0.358193 10.371204 0 35 110
1.967600 -0.329799 10.262383 0 0 21
1.916860 -0.267525 10.251210 26 133 218
0.671149 -0.267924 10.597833 0 33 79
1.895842 -0.094121 10.254360 25 132 217
2.116322 -0.073878 10.190554 17 15 21
0.666332 -0.047976 10.604515 31 125 201
2.219011 -0.022602 10.149269 98 139 194
1.848233 -0.018092 10.237700 0 36 117
1.944253 0.001059 10.259955 3 8 29
2.907359 0.007291 9.896757 87 145 221
0.320628 0.014268 10.693296 23 143 215
2.295614 0.017284 10.151435 17 14 23
0.424145 0.023424 10.677302 24 142 219
2.018656 0.025608 10.183523 17 15 21
2.132300 0.036049 10.178132 18 17 19
0.575711 0.079735 10.627283 16 14 20
1.879489 0.075677 10.239304 25 131 216
1.490955 0.147980 10.336071 47 105 187
1.927615 0.189967 10.253057 9 9 33
0.049740 0.206980 10.764624 222 218 229
2.263813 0.254087 10.164335 18 17 21
0.346311 0.336188 10.665502 34 144 220
0.338205 0.444969 10.656471 24 132 210
0.434241 0.486551 10.634193 15 14 23
1.424314 0.559709 10.341890 81 108 158
0.445207 0.620090 10.606384 14 16 17
2.075985 0.722796 10.183753 14 15 25
0.294940 0.770479 10.638715 16 141 216
1.408810 0.829391 10.329744 46 126 203
2.209502 0.807011 10.122019 20 16 21
0.283076 0.862224 10.628994 20 140 216
0.328410 0.867291 10.630078 21 142 216
0.197338 0.899462 10.654513 14 12 12
1.867035 0.867232 10.224895 4 16 28
0.406016 0.925372 10.606007 16 13 15
2.050798 0.958595 10.129707 18 17 21
1.802428 0.925765 10.176973 16 130 214
2.252244 0.925367 10.022904 22 17 19
2.050596 1.009596 10.153604 14 13 23
1.793381 1.018268 10.180370 24 131 216
1.843416 1.077283 10.190086 5 14 41
2.234129 1.119362 10.009493 21 19 31
1.777648 1.142291 10.155416 20 132 214
2.031777 1.209608 10.136769 20 15 24
0.245405 1.282960 10.606716 44 145 223
2.223464 1.214307 9.995457 24 18 29
1.522613 1.289781 10.255462 24 53 92
2.277770 1.270525 10.040392 78 109 148
1.823511 1.312429 10.182765 9 11 21
1.760635 1.358964 10.144487 19 127 209
2.230635 1.393978 10.023741 117 140 188
1.982271 1.440592 10.127200 19 17 17
1.755856 1.471457 10.166521 23 131 213
0.262180 1.610709 10.536633 7 115 192
0.209362 1.698622 10.556119 34 138 215
0.256478 1.704871 10.554363 39 140 218
0.125547 1.737139 10.576657 14 12 12
0.334205 1.745244 10.499178 14 12 12
1.728981 1.681396 10.120132 18 127 212
1.910134 1.792651 10.081622 14 14 28
2.202030 1.873312 9.999830 19 19 31
0.592836 1.970034 10.430682 17 19 20
0.551852 2.037022 10.397072 78 118 137
0.665033 2.059520 10.388546 21 129 211
0.415224 2.134599 10.444092 18 134 218
0.189033 2.157714 10.502524 11 10 14
0.648016 2.141880 10.375887 13 12 16
0.329275 2.169821 10.467336 12 12 12
0.783115 2.151698 10.345712 11 10 19
0.643815 2.188637 10.351583 11 10 12
0.780889 2.201043 10.317130 12 11 13
1.223521 2.180502 10.194305 12 10 16
0.927075 2.212316 10.275356 10 10 16
1.377308 2.190559 10.153115 13 11 17
1.669900 2.215851 10.084850 12 12 18
2.033631 3.408431 10.755574 164 159 168
-0.692531 3.603611 9.397301 175 172 174
1.778870 3.908496 9.442708 85 78 69
0.847445 -2.126162 10.625232 17 121 198
0.912951 -1.955262 10.570786 27 105 172
1.975841 -1.876938 10.242412 0 8 73
1.581813 -1.807220 10.376698 23 20 42
1.788466 -1.790043 10.303328 25 19 44
2.062772 -1.781741 10.244447 26 20 45
1.206975 -1.829048 10.539474 33 36 198
1.487085 -1.723612 10.369542 15 110 179
0.530135 -1.734281 10.686908 28 117 184
2.046877 -1.631902 10.242040 24 18 35
2.341997 -1.630989 10.172184 25 19 38
2.878376 -1.599298 10.012380 8 117 215
3.941297 -1.496293 9.587130 24 125 223
1.738237 -1.579288 10.301771 27 19 42
3.173524 -1.487865 9.829268 25 18 23
3.357742 -1.490002 9.875670 21 16 18
2.801435 -1.488069 9.976912 18 16 16
1.799521 -1.461269 10.290479 0 44 156
2.693988 -1.418873 10.048806 21 16 18
2.812965 -1.280984 9.989767 18 14 19
2.696146 -1.244053 10.010233 9 66 159
1.457269 -1.290817 10.441573 26 130 213
2.975198 -1.212606 9.894258 80 135 208
1.971008 -1.246452 10.224277 31 134 221
3.296333 -1.187381 9.845234 56 93 153
0.764609 -1.270512 10.604630 30 134 211
1.883647 -1.173265 10.249855 0 47 117
0.658518 -1.205853 10.630299 17 14 16
1.956978 -1.093533 10.255808 30 135 216
2.376263 -0.980515 10.156391 20 17 19
0.846067 -0.963544 10.582240 18 18 24
0.049483 -0.954624 10.849653 35 19 136
2.194241 -0.879887 10.149853 16 17 15
1.728320 -0.846240 10.353993 69 135 206
0.732506 -0.848394 10.591334 6 101 171
2.333782 -0.663050 10.177137 19 16 18
1.696065 -0.487643 10.334455 33 92 164
2.346108 -0.470152 10.188336 19 15 20
3.009993 -0.423773 9.992705 22 18 24
3.053615 -0.156139 9.911977 20 18 24
1.951831 -0.000569 10.248235 18 13 22
0.215559 0.440753 10.703616 17 14 16
1.877129 0.869554 10.224971 14 14 20
1.876570 1.443124 10.185812 16 15 19
0.204863 2.153265 10.526052 7 12 11
0.320040 2.160646 10.475924 16 10 15
0.930775 2.185612 10.287226 11 8 17
1.226172 2.208835 10.214555 12 10 16
1.524313 2.229762 10.120306 14 13 15
1.654027 2.234030 10.036007 12 14 15
1.811441 2.248186 10.003018 12 11 15
1.070364 3.090562 11.256384 71 61 78
1.058617 -2.214332 10.543140 22 21 23
2.783530 -1.663911 9.988505 26 18 48
0.440859 -0.397878 10.727886 21 116 195
0.885832 -2.127498 10.568016 56 113 182
0.546797 -2.066579 10.633397 24 101 174
1.141474 -1.802706 10.508156 29 33 192
1.676116 -1.699367 10.329375 72 147 225
0.942305 -1.709897 10.540656 0 0 48
1.956656 -1.650293 10.211322 35 140 221
0.131378 -1.717451 10.850317 193 193 193
1.308847 -1.581864 10.461681 22 17 38
1.866790 -1.376442 10.247404 60 44 122
1.476778 -1.266975 10.420930 26 130 213
0.765937 -1.272375 10.603713 27 131 208
3.951549 -0.984326 9.624891 10 28 87
2.250967 -0.979011 10.167213 48 121 212
0.729715 -0.851815 10.610636 16 111 184
2.845069 -0.778482 9.960382 7 121 215
2.087453 -0.727978 10.266066 17 16 20
2.029461 -0.675804 10.338737 18 14 20
0.764297 -0.662608 10.585882 25 28 32
2.836952 -0.610436 9.990413 8 120 216
0.760107 -0.581372 10.540218 19 18 22
2.964142 -0.561899 10.060393 21 17 23
2.825874 -0.522353 9.972640 10 121 219
0.558198 -0.504947 10.702518 19 16 18
2.051564 -0.412477 10.255730 15 16 20
2.812277 -0.351380 9.983509 34 128 211
1.877042 -0.212125 10.295334 26 133 218
0.726757 -0.164168 10.499887 18 18 24
2.049043 -0.156674 10.282698 12 12 12
0.524652 -0.087298 10.672712 18 14 19
2.345761 -0.026214 10.297847 18 16 16
0.657951 -0.004836 10.610340 12 111 191
1.950688 -0.003292 10.251129 20 15 24
2.776970 -0.006651 9.927838 54 120 222
2.975567 0.077685 10.691585 18 79 153
2.937317 0.087548 9.971033 37 61 137
0.694219 0.176932 10.552318 15 19 24
2.006609 0.191356 10.231932 17 16 20
0.236212 0.242060 10.741014 15 13 13
2.067303 0.373858 10.169548 52 121 178
1.505010 0.573694 10.335138 46 55 112
2.152004 0.568415 10.075999 33 116 178
0.435367 0.684991 10.672896 14 12 11
0.309302 0.815801 10.629582 20 140 216
1.878792 0.867740 10.221637 14 14 20
1.760553 0.967775 10.187877 21 133 217
1.860257 1.089686 10.221673 20 18 37
1.740176 1.187467 10.160425 25 132 217
1.838965 1.307734 10.186450 15 13 19
1.716404 1.406979 10.136775 22 131 216
2.153277 1.516956 10.073249 19 15 20
1.692625 1.621616 10.113022 22 129 214
0.864228 2.088567 10.309281 20 128 206
1.014875 2.101223 10.271439 21 128 209
0.113148 2.226077 10.557027 161 159 159
1.452876 2.132525 10.138464 22 127 208
-0.066660 2.256603 10.507589 137 132 134
1.819388 3.628334 9.775059 170 163 160
0.892340 -2.107259 10.630802 51 113 183
0.392194 -1.915881 10.728269 20 15 16
1.097391 -1.784377 10.501792 24 37 193
0.332192 -1.038321 10.693874 17 14 16
0.741768 -0.620288 10.584847 19 18 22
0.291985 -0.593751 10.743815 16 14 14
0.527611 -0.554587 10.670508 17 14 16
0.258967 -0.176001 10.686395 16 13 15
0.505470 -0.127730 10.641754 18 14 19
2.185337 -0.006224 10.235937 56 89 152
2.042346 0.191353 10.233856 20 16 21
0.188955 0.630078 10.662798 14 12 12
0.160002 1.031747 10.640384 15 11 10
1.856134 1.668215 10.125448 18 14 19
2.227937 1.842621 10.149970 19 19 31
0.078484 1.940236 10.588550 13 11 11
0.118802 2.236622 10.510658 127 125 125
1.532114 -1.233795 10.548846 35 127 204
0.764446 -1.051199 10.674582 19 16 18
0.515963 0.213395 10.545264 18 16 22
1.507965 -1.660635 10.412110 63 111 183
0.407601 -1.520375 10.652390 18 16 16
0.367263 -1.052111 10.714763 18 15 17
0.877549 -0.413427 10.558979 19 125 208
0.843845 0.009103 10.567430 21 123 206
0.632150 0.253899 10.581724 13 13 19
0.513198 0.643953 10.575991 16 14 14
0.483937 1.054690 10.537965 18 13 15
1.230773 2.192344 10.248030 10 9 18
1.989549 2.256668 10.130641 13 15 16
1.931711 -1.402930 10.286633 132 175 226
0.489770 0.161524 10.580666 120 124 142
-0.141489 2.211991 10.688604 236 232 251
4.642441 4.833797 9.611487 93 96 94
5.111314 -1.789448 9.492809 71 96 140
2.224728 -1.595565 10.214483 20 14 19
2.681885 -1.569097 10.092177 0 0 29
1.706058 -1.486118 10.345024 73 160 234
2.620522 -1.399681 10.108420 54 143 210
2.107954 -1.298896 10.227513 100 168 227
3.448157 -1.183268 9.869152 117 144 195
1.998658 -1.043015 10.247685 58 146 216
2.893692 -0.912578 10.009755 0 5 14
4.172307 -0.754440 9.579610 109 129 176
0.751444 -0.772106 10.543601 35 126 195
2.128006 -0.696536 10.202246 77 132 175
2.178795 -0.503498 10.187064 16 14 20
0.336630 -0.425064 10.624853 66 131 192
4.329408 -0.157354 9.272965 16 13 22
0.330163 -0.308614 10.623729 71 105 164
0.461691 -0.212805 10.594347 0 22 75
4.302914 -0.048869 9.087969 118 149 202
0.413862 0.126268 10.596536 82 125 192
7.674634 0.584314 8.848439 4 37 106
0.378139 0.472794 10.601696 65 162 228
0.466139 0.554867 10.582159 114 149 183
0.179661 1.732392 10.619934 45 132 198
0.244943 1.822581 10.602780 88 113 155
0.740900 2.205434 10.155671 40 134 210
2.194600 -1.837743 10.241354 20 17 32
2.273344 -1.721036 10.206905 63 150 216
3.154541 -1.605317 9.977179 23 133 228
2.221507 -1.593566 10.215819 20 14 19
2.550480 -1.558898 10.112542 16 15 19
3.661721 -1.513859 9.832701 20 126 213
1.373218 -1.594129 10.426194 15 6 87
3.616191 -1.497509 9.843275 18 30 88
2.831406 -1.387239 10.046429 79 124 168
2.411798 -1.278725 10.150858 99 170 233
3.256840 -1.207405 9.909956 129 149 190
3.070511 -1.186605 9.962817 9 5 10
3.606497 -1.163291 9.808769 127 166 218
3.775472 -1.132638 9.752026 22 21 31
2.252164 -1.107311 10.184971 20 20 26
2.279775 -1.076526 10.176587 114 163 201
2.898059 -0.913153 10.014540 20 19 28
4.138093 -0.847499 9.604156 118 131 193
4.425328 -0.738663 9.475692 0 17 63
2.115336 -0.732982 10.209125 15 17 18
4.096506 -0.641273 9.567793 16 14 20
2.257459 -0.706263 10.171566 4 0 4
2.220846 -0.680786 10.176302 47 117 176
4.118389 -0.588735 9.518246 114 146 182
4.407400 -0.384114 9.349568 13 49 95
4.351501 -0.245384 9.311997 12 16 17
4.355432 -0.212999 9.256820 97 134 184
4.417887 -0.171421 9.209853 25 27 37
4.364077 -0.157063 9.221703 15 14 23
4.299552 -0.094610 9.202887 13 17 28
4.299637 -0.076055 9.154315 16 20 21
4.347378 -0.069201 9.117123 9 13 14
4.296563 -0.045109 9.065962 113 141 195
4.366918 -0.034716 9.096139 0 41 106
4.244955 0.041426 8.999178 23 63 105
7.064943 0.248127 9.016915 66 105 174
4.175383 0.152309 8.632394 20 17 26
0.463282 0.555199 10.578603 116 148 189
0.138638 1.809394 10.626963 96 125 164
0.127495 2.124128 10.623488 73 153 214
4.434368 4.772373 9.642432 8 10 10
3.658975 -1.528244 9.836076 18 131 218
2.257937 -1.549988 10.202305 78 153 231
4.574061 -1.443175 9.582697 32 140 222
2.550292 -1.515692 10.147152 121 146 196
2.192434 -1.511606 10.220523 22 19 14
2.360322 -1.420537 10.166883 126 155 199
2.615515 -1.405210 10.107929 32 110 181
2.746253 -1.247498 10.067916 61 117 182
3.113738 -1.216514 9.974437 130 161 216
2.864138 -0.962542 10.020398 53 96 163
2.907095 -0.895984 9.999972 21 19 25
2.900089 -0.815023 9.997610 18 17 19
2.205133 -0.821713 10.177907 15 17 17
4.103460 -0.706939 9.585030 13 15 15
3.016923 -0.727573 9.958745 20 17 19
4.414192 -0.649571 9.455967 0 22 77
4.304446 -0.074873 9.172752 16 18 19
4.295164 0.019055 8.982183 21 18 20
0.247220 0.474776 10.638134 19 13 14
3.297666 2.246508 10.047545 41 91 157
0.647415 2.234624 10.517424 8 10 11
-0.121667 2.213276 10.681747 189 186 188
2.819101 -1.517648 10.048759 22 19 15
2.387838 -1.429532 10.164928 54 70 106
7.750558 -1.049635 8.903445 37 96 205
2.738464 -1.246382 10.070649 105 150 218
2.919937 -0.999005 10.006985 21 19 19
2.268130 -0.974761 10.159095 45 90 141
2.096505 -0.638735 10.206612 19 16 18
6.933547 0.531707 9.019351 23 19 25
2.037955 1.988585 10.212341 41 145 222
3.876027 -1.510917 9.775023 21 132 224
2.595737 -1.311424 10.094846 23 21 21
4.155056 -0.315614 9.425144 19 16 18
4.300599 0.049858 8.927444 22 20 19
0.499249 2.191328 10.533727 8 10 11
2.967778 -1.229176 9.988556 15 52 110
2.285355 -1.066946 10.171661 86 140 193
2.966100 -0.808341 9.947524 21 18 20
2.156034 -0.770350 10.194918 11 129 200
0.376310 0.028349 10.607152 48 149 218
2.161519 1.095559 10.109531 109 150 213
0.705813 2.033829 10.491835 38 140 215
3.109795 2.221340 10.094328 43 148 222
2.132857 -0.215517 10.433488 18 16 16
3.645413 3.660754 9.297736 31 19 77
5.336594 -1.403704 9.292677 30 143 223
5.702572 -1.317422 9.286611 19 26 46
-1.662918 3.224637 11.338616 41 26 107
5.604216 -1.407129 9.312531 37 138 224
1.206951 0.995203 11.554650 48 140 213
4.924356 3.721278 8.606877 21 8 24
5.128470 3.746259 8.564730 23 12 58
0.373126 -2.108147 10.396441 64 94 135
5.589560 -1.406892 9.275212 31 143 225
5.187514 -1.430255 9.350755 32 143 223
1.217821 1.034600 11.567695 48 136 212
1.733299 2.302986 10.578810 17 17 17
-1.293486 2.874401 11.087318 151 148 150
0.463322 -2.089772 10.469290 78 111 156
2.283468 0.447983 10.428477 90 137 193
4.670725 3.871834 8.460649 103 98 99
1.215903 2.286652 10.556797 15 15 15
5.893825 -1.737489 9.306408 64 88 140
6.058734 -1.373724 9.197669 58 108 174
5.039133 -1.436306 9.478487 20 112 195
5.776536 -1.350368 9.266485 36 101 175
2.323371 -1.659747 10.161160 76 113 169
2.059333 -1.681314 10.235846 77 104 160
2.403271 -1.509614 10.122998 66 92 152
2.292221 -1.518506 10.124311 71 95 153
2.520869 -1.247414 10.047688 61 95 149
5.872891 -0.582535 9.226660 40 91 177
2.781131 -0.779718 9.881404 70 106 170
5.676902 -0.293466 9.220183 28 90 180
